-1.7014117E38,-1.7014117E38,-1.7014117E38,-1.7014117E38,-1.7014117E38,-1.7014117E38,-1.7014117E38,-1.7014117E38,-1.7014117E38,-1.7014117E38,-1.7014117E38,-1.7014117E38,-1.7014117E38,-1.7014117E38,34.429688,34.4375,34.484375,34.572266,34.703125,34.875,35.091797,35.34375,35.632812,35.95117,36.29492,36.65625,37.029297,37.410156,37.78711,38.158203,38.51367,38.847656,39.154297,39.429688,39.66992,39.86914,40.027344,40.140625,40.21289,40.24414,40.23828,40.19922,40.13672,40.060547,39.98242,39.908203,39.84375,39.79492,39.759766,39.740234,39.73633,39.742188,39.76172,39.785156,39.814453,39.841797,39.867188,39.884766,39.89258,39.88672,39.867188,39.83008,39.773438,39.697266,39.601562,39.484375,39.34961,39.195312,39.02539,38.841797,38.64453,38.435547,38.220703,38.001953,37.779297,37.554688,37.328125,37.10547,36.884766,36.677734,36.484375,36.3125,36.16797,36.052734,35.97461,35.93164,35.929688,35.970703,36.05078,36.17383,36.333984,36.53125,36.76172,37.01953,37.296875,37.591797,37.896484,38.20117,38.501953,38.789062,39.058594,39.30078,39.51367,39.689453,39.83008,39.93164,39.998047,40.033203,40.04492,40.04492,40.04492,40.04492,40.04492,40.04492,40.04492,40.04492,40.04492,40.04492,40.04492,40.04492,40.04492,40.04492,40.04492,40.04492,40.04492,40.04492,40.04492,40.04492,40.04492,40.04492,40.04492,40.04492,40.04492,40.04492,40.04492,40.04492,40.04492,40.04492,40.04492,40.04492,40.04492,40.04492,40.04492,40.052734,40.07422,40.11914,40.191406,40.289062,40.416016,40.564453,40.73633,40.92383,41.121094,41.32422,41.52539,41.720703,41.904297,42.06836,42.210938,42.328125,42.416016,42.472656,42.496094,42.484375,42.441406,42.365234,42.259766,42.125,41.966797,41.789062,41.59375,41.384766,41.16797,40.945312,40.720703,40.496094,40.28125,40.08008,39.904297,39.757812,39.64453,39.566406,39.523438,39.51758,39.546875,39.60742,39.695312,39.808594,39.941406,40.089844,40.248047,40.410156,40.56836,40.720703,40.859375,40.978516,41.07617,41.14453,41.183594,41.1875,41.15625,41.089844,40.98633,40.84961,40.68164,40.48828,40.277344,40.054688,39.83008,39.61914,39.42578,39.26172,39.13086,39.035156,38.98047,38.96289,38.98633,39.046875,39.140625,39.26367,39.414062,39.583984,39.76953,39.96289,40.160156,40.351562,40.535156,40.703125,40.84961,40.96875,41.05664,41.11133,41.126953,41.10547,41.04297,40.94336,40.804688,40.63672,40.441406,40.226562,40.001953,39.779297,39.56836,39.376953,39.214844,39.083984,38.992188,38.945312,38.941406,38.984375,39.07422,39.210938,39.38867,39.609375,39.86328,40.15039
-1.7014117E38,-1.7014117E38,-1.7014117E38,-1.7014117E38,-1.7014117E38,-1.7014117E38,-1.7014117E38,-1.7014117E38,-1.7014117E38,-1.7014117E38,-1.7014117E38,-1.7014117E38,-1.7014117E38,-1.7014117E38,34.77539,34.791016,34.841797,34.93164,35.060547,35.23047,35.4375,35.68164,35.95508,36.257812,36.583984,36.927734,37.28125,37.640625,38.0,38.34961,38.6875,39.003906,39.296875,39.560547,39.791016,39.984375,40.13867,40.251953,40.328125,40.365234,40.367188,40.339844,40.291016,40.228516,40.164062,40.10547,40.058594,40.02539,40.009766,40.01172,40.027344,40.05664,40.095703,40.140625,40.1875,40.234375,40.27539,40.30664,40.32422,40.32617,40.310547,40.273438,40.214844,40.132812,40.027344,39.90039,39.75,39.58203,39.39453,39.191406,38.976562,38.751953,38.51953,38.283203,38.04297,37.802734,37.564453,37.32617,37.091797,36.86914,36.66211,36.476562,36.316406,36.189453,36.097656,36.04492,36.035156,36.066406,36.140625,36.259766,36.41797,36.615234,36.845703,37.10547,37.38867,37.689453,38.0,38.3125,38.621094,38.91797,39.195312,39.445312,39.664062,39.847656,39.992188,40.097656,40.166016,40.203125,40.214844,40.216797,40.216797,40.216797,40.216797,40.216797,40.216797,40.216797,40.216797,40.216797,40.216797,40.216797,40.216797,40.216797,40.216797,40.216797,40.216797,40.216797,40.216797,40.216797,40.216797,40.216797,40.216797,40.216797,40.216797,40.216797,40.216797,40.216797,40.216797,40.216797,40.216797,40.216797,40.216797,40.216797,40.216797,40.222656,40.246094,40.291016,40.36133,40.460938,40.585938,40.73242,40.90039,41.083984,41.27539,41.470703,41.664062,41.84961,42.01953,42.16992,42.296875,42.396484,42.464844,42.5,42.501953,42.46875,42.402344,42.302734,42.17383,42.01758,41.83789,41.640625,41.42578,41.19922,40.966797,40.728516,40.490234,40.25,40.021484,39.810547,39.625,39.47461,39.36133,39.28711,39.25586,39.26367,39.310547,39.39258,39.507812,39.65039,39.816406,40.0,40.191406,40.38867,40.583984,40.771484,40.941406,41.09375,41.216797,41.310547,41.36914,41.38867,41.36914,41.30664,41.20508,41.066406,40.890625,40.6875,40.46289,40.22461,39.98828,39.76172,39.55664,39.382812,39.242188,39.140625,39.08203,39.064453,39.089844,39.152344,39.251953,39.384766,39.54297,39.72461,39.921875,40.128906,40.33789,40.54297,40.73828,40.916016,41.072266,41.19922,41.29297,41.351562,41.36914,41.34375,41.279297,41.171875,41.02539,40.845703,40.63672,40.408203,40.16992,39.933594,39.70508,39.496094,39.310547,39.154297,39.035156,38.95703,38.91992,38.927734,38.98047,39.08008,39.222656,39.40625,39.626953,39.88086
-1.7014117E38,-1.7014117E38,-1.7014117E38,-1.7014117E38,-1.7014117E38,-1.7014117E38,-1.7014117E38,-1.7014117E38,-1.7014117E38,-1.7014117E38,-1.7014117E38,-1.7014117E38,-1.7014117E38,-1.7014117E38,35.158203,35.179688,35.234375,35.32422,35.44922,35.61133,35.808594,36.03711,36.296875,36.58008,36.884766,37.20703,37.53711,37.873047,38.20703,38.535156,38.851562,39.148438,39.42383,39.671875,39.88867,40.072266,40.220703,40.33203,40.408203,40.44922,40.460938,40.44336,40.40625,40.35742,40.304688,40.259766,40.228516,40.21289,40.214844,40.234375,40.271484,40.320312,40.38086,40.447266,40.51367,40.578125,40.63672,40.68164,40.710938,40.722656,40.71289,40.679688,40.621094,40.53711,40.42578,40.289062,40.13086,39.94922,39.748047,39.53125,39.30078,39.058594,38.8125,38.560547,38.30664,38.052734,37.80078,37.54883,37.30078,37.064453,36.84375,36.64453,36.472656,36.33203,36.228516,36.164062,36.14258,36.164062,36.23242,36.34375,36.498047,36.691406,36.91992,37.179688,37.464844,37.76758,38.08203,38.40039,38.714844,39.015625,39.29883,39.554688,39.779297,39.966797,40.117188,40.22461,40.29492,40.33203,40.345703,40.347656,40.347656,40.347656,40.347656,40.347656,40.347656,40.347656,40.347656,40.347656,40.347656,40.347656,40.347656,40.347656,40.347656,40.347656,40.347656,40.347656,40.347656,40.347656,40.347656,40.347656,40.347656,40.347656,40.347656,40.347656,40.347656,40.347656,40.347656,40.347656,40.347656,40.347656,40.347656,40.347656,40.347656,40.353516,40.376953,40.421875,40.492188,40.589844,40.714844,40.86133,41.027344,41.20508,41.39258,41.58203,41.76758,41.941406,42.09961,42.23828,42.351562,42.433594,42.484375,42.501953,42.484375,42.429688,42.34375,42.22461,42.07422,41.898438,41.70117,41.48242,41.251953,41.009766,40.76172,40.509766,40.25586,40.003906,39.76172,39.541016,39.34961,39.195312,39.08203,39.01172,38.98828,39.007812,39.072266,39.17578,39.314453,39.484375,39.679688,39.89258,40.117188,40.347656,40.57422,40.79297,40.99414,41.171875,41.322266,41.435547,41.51172,41.546875,41.535156,41.48047,41.38086,41.23828,41.05664,40.84375,40.60742,40.35547,40.10547,39.867188,39.65039,39.466797,39.31836,39.21289,39.15039,39.13086,39.15625,39.22461,39.328125,39.46875,39.63672,39.828125,40.035156,40.253906,40.47461,40.691406,40.896484,41.085938,41.25,41.382812,41.48242,41.54297,41.5625,41.53711,41.466797,41.35547,41.20117,41.009766,40.791016,40.54883,40.296875,40.046875,39.804688,39.57617,39.371094,39.19336,39.046875,38.9375,38.86914,38.84375,38.86328,38.92578,39.033203,39.18164,39.36914,39.591797
-1.7014117E38,-1.7014117E38,-1.7014117E38,-1.7014117E38,-1.7014117E38,-1.7014117E38,-1.7014117E38,-1.7014117E38,-1.7014117E38,-1.7014117E38,-1.7014117E38,-1.7014117E38,-1.7014117E38,-1.7014117E38,35.56836,35.595703,35.65039,35.73828,35.85742,36.009766,36.19336,36.40625,36.646484,36.908203,37.189453,37.484375,37.789062,38.097656,38.40625,38.70703,38.998047,39.271484,39.52539,39.75586,39.95703,40.128906,40.26953,40.376953,40.453125,40.496094,40.51172,40.503906,40.476562,40.439453,40.40039,40.367188,40.34961,40.347656,40.367188,40.404297,40.460938,40.529297,40.609375,40.697266,40.783203,40.867188,40.941406,41.003906,41.046875,41.070312,41.06836,41.041016,40.984375,40.90039,40.78711,40.646484,40.48047,40.289062,40.078125,39.84961,39.60547,39.351562,39.089844,38.82617,38.560547,38.29492,38.029297,37.765625,37.50586,37.257812,37.023438,36.8125,36.626953,36.472656,36.35742,36.28125,36.248047,36.259766,36.31836,36.421875,36.56836,36.75586,36.98047,37.23828,37.521484,37.82422,38.13867,38.458984,38.77539,39.08008,39.367188,39.626953,39.853516,40.04492,40.195312,40.30664,40.378906,40.416016,40.429688,40.43164,40.43164,40.43164,40.43164,40.43164,40.43164,40.43164,40.43164,40.43164,40.43164,40.43164,40.43164,40.43164,40.43164,40.43164,40.43164,40.43164,40.43164,40.43164,40.43164,40.43164,40.43164,40.43164,40.43164,40.43164,40.43164,40.43164,40.43164,40.43164,40.43164,40.43164,40.43164,40.43164,40.43164,40.4375,40.460938,40.50586,40.578125,40.67578,40.79883,40.94336,41.10742,41.285156,41.46875,41.652344,41.83008,41.998047,42.146484,42.273438,42.373047,42.44336,42.478516,42.48047,42.445312,42.375,42.26953,42.132812,41.966797,41.773438,41.55664,41.32422,41.07617,40.820312,40.558594,40.29492,40.029297,39.765625,39.51367,39.283203,39.083984,38.92578,38.8125,38.746094,38.728516,38.759766,38.83789,38.958984,39.11914,39.3125,39.533203,39.773438,40.027344,40.285156,40.541016,40.785156,41.01367,41.214844,41.38672,41.51953,41.61133,41.65625,41.654297,41.603516,41.503906,41.359375,41.171875,40.95117,40.703125,40.441406,40.177734,39.927734,39.703125,39.509766,39.35547,39.24414,39.177734,39.158203,39.185547,39.25586,39.365234,39.51172,39.6875,39.88867,40.10547,40.333984,40.564453,40.79297,41.007812,41.20508,41.376953,41.51758,41.621094,41.685547,41.70508,41.677734,41.60547,41.48633,41.32617,41.126953,40.896484,40.64258,40.378906,40.117188,39.86133,39.617188,39.39258,39.19336,39.023438,38.88672,38.789062,38.73242,38.716797,38.748047,38.820312,38.9375,39.091797,39.285156
-1.7014117E38,-1.7014117E38,-1.7014117E38,-1.7014117E38,-1.7014117E38,-1.7014117E38,-1.7014117E38,-1.7014117E38,-1.7014117E38,-1.7014117E38,-1.7014117E38,-1.7014117E38,-1.7014117E38,-1.7014117E38,35.996094,36.02539,36.08008,36.16211,36.273438,36.414062,36.58203,36.777344,36.99414,37.23242,37.48633,37.753906,38.029297,38.308594,38.585938,38.859375,39.121094,39.36914,39.59961,39.808594,39.99414,40.152344,40.28125,40.382812,40.45508,40.5,40.51953,40.51758,40.5,40.470703,40.44336,40.421875,40.416016,40.427734,40.46289,40.515625,40.589844,40.677734,40.777344,40.884766,40.990234,41.09375,41.185547,41.26367,41.322266,41.359375,41.367188,41.347656,41.296875,41.216797,41.103516,40.960938,40.791016,40.59375,40.375,40.13867,39.884766,39.621094,39.34961,39.07422,38.796875,38.51953,38.24414,37.970703,37.70117,37.441406,37.195312,36.972656,36.773438,36.609375,36.48047,36.390625,36.347656,36.347656,36.39453,36.48828,36.625,36.804688,37.023438,37.27539,37.552734,37.853516,38.166016,38.484375,38.80078,39.10547,39.39258,39.654297,39.882812,40.07617,40.228516,40.339844,40.41211,40.45117,40.464844,40.466797,40.466797,40.466797,40.466797,40.466797,40.466797,40.466797,40.466797,40.466797,40.466797,40.466797,40.466797,40.466797,40.466797,40.466797,40.466797,40.466797,40.466797,40.466797,40.466797,40.466797,40.466797,40.466797,40.466797,40.466797,40.466797,40.466797,40.466797,40.466797,40.466797,40.466797,40.466797,40.466797,40.466797,40.472656,40.496094,40.541016,40.61328,40.710938,40.833984,40.98047,41.14258,41.31836,41.498047,41.679688,41.853516,42.015625,42.158203,42.27539,42.367188,42.42578,42.45117,42.439453,42.390625,42.30664,42.1875,42.035156,41.853516,41.64453,41.416016,41.16992,40.908203,40.640625,40.367188,40.091797,39.816406,39.54297,39.279297,39.041016,38.83789,38.67578,38.560547,38.496094,38.484375,38.52539,38.615234,38.751953,38.927734,39.140625,39.382812,39.64453,39.91992,40.203125,40.48047,40.748047,40.998047,41.21875,41.408203,41.55664,41.660156,41.716797,41.720703,41.67383,41.57422,41.42578,41.234375,41.00586,40.748047,40.476562,40.203125,39.94336,39.708984,39.507812,39.347656,39.23047,39.16211,39.14258,39.16992,39.24414,39.35742,39.509766,39.69336,39.90039,40.126953,40.365234,40.60547,40.839844,41.064453,41.26953,41.447266,41.59375,41.703125,41.76758,41.789062,41.76172,41.685547,41.5625,41.39453,41.1875,40.94922,40.685547,40.41211,40.13867,39.871094,39.61328,39.371094,39.152344,38.960938,38.80078,38.67578,38.589844,38.546875,38.546875,38.58789,38.67383,38.80078,38.964844
-1.7014117E38,-1.7014117E38,-1.7014117E38,-1.7014117E38,-1.7014117E38,-1.7014117E38,-1.7014117E38,-1.7014117E38,-1.7014117E38,-1.7014117E38,-1.7014117E38,-1.7014117E38,-1.7014117E38,-1.7014117E38,36.427734,36.45703,36.509766,36.585938,36.689453,36.814453,36.966797,37.140625,37.333984,37.54492,37.76953,38.00586,38.25,38.498047,38.74414,38.984375,39.216797,39.4375,39.64258,39.83008,39.99414,40.13672,40.253906,40.345703,40.414062,40.45703,40.478516,40.48242,40.470703,40.45117,40.43164,40.41992,40.42383,40.44922,40.496094,40.566406,40.65625,40.76172,40.88086,41.00586,41.13086,41.251953,41.36328,41.458984,41.533203,41.583984,41.60547,41.595703,41.552734,41.478516,41.36914,41.228516,41.05664,40.85742,40.634766,40.390625,40.13086,39.859375,39.578125,39.29492,39.009766,38.72461,38.439453,38.15625,37.876953,37.60742,37.353516,37.117188,36.910156,36.73242,36.591797,36.490234,36.43164,36.41992,36.45508,36.53711,36.664062,36.833984,37.04297,37.285156,37.558594,37.851562,38.158203,38.472656,38.78711,39.089844,39.375,39.634766,39.86328,40.05664,40.208984,40.320312,40.39453,40.433594,40.447266,40.447266,40.447266,40.447266,40.447266,40.447266,40.447266,40.447266,40.447266,40.447266,40.447266,40.447266,40.447266,40.447266,40.447266,40.447266,40.447266,40.447266,40.447266,40.447266,40.447266,40.447266,40.447266,40.447266,40.447266,40.447266,40.447266,40.447266,40.447266,40.447266,40.447266,40.447266,40.447266,40.447266,40.447266,40.45508,40.478516,40.523438,40.595703,40.695312,40.81836,40.964844,41.128906,41.302734,41.484375,41.664062,41.835938,41.99414,42.132812,42.246094,42.33203,42.382812,42.40039,42.378906,42.322266,42.226562,42.097656,41.933594,41.742188,41.521484,41.28125,41.023438,40.753906,40.47461,40.19336,39.908203,39.623047,39.341797,39.070312,38.82422,38.615234,38.44922,38.333984,38.271484,38.26367,38.310547,38.408203,38.554688,38.74414,38.972656,39.228516,39.507812,39.802734,40.101562,40.398438,40.683594,40.947266,41.185547,41.38672,41.546875,41.660156,41.722656,41.73242,41.6875,41.58789,41.435547,41.240234,41.003906,40.73828,40.458984,40.17578,39.908203,39.666016,39.458984,39.29297,39.17383,39.103516,39.083984,39.11133,39.1875,39.304688,39.460938,39.65039,39.865234,40.097656,40.34375,40.591797,40.833984,41.066406,41.277344,41.460938,41.61133,41.722656,41.791016,41.8125,41.785156,41.70703,41.58008,41.40625,41.19336,40.945312,40.67578,40.39258,40.109375,39.83203,39.5625,39.30664,39.070312,38.859375,38.677734,38.53125,38.41992,38.34961,38.322266,38.33789,38.396484,38.496094,38.634766
-1.7014117E38,-1.7014117E38,-1.7014117E38,-1.7014117E38,-1.7014117E38,-1.7014117E38,-1.7014117E38,-1.7014117E38,-1.7014117E38,-1.7014117E38,-1.7014117E38,-1.7014117E38,-1.7014117E38,-1.7014117E38,36.85547,36.884766,36.933594,37.001953,37.091797,37.203125,37.335938,37.48633,37.654297,37.83789,38.03125,38.23633,38.447266,38.660156,38.873047,39.08008,39.28125,39.472656,39.65039,39.8125,39.95703,40.08008,40.183594,40.265625,40.32617,40.367188,40.390625,40.396484,40.390625,40.378906,40.365234,40.36133,40.375,40.410156,40.46875,40.552734,40.65625,40.779297,40.914062,41.058594,41.203125,41.341797,41.470703,41.583984,41.67578,41.740234,41.77539,41.779297,41.748047,41.679688,41.578125,41.441406,41.271484,41.072266,40.84961,40.601562,40.33789,40.060547,39.77539,39.484375,39.191406,38.90039,38.609375,38.31836,38.03125,37.753906,37.490234,37.246094,37.02539,36.83789,36.685547,36.572266,36.501953,36.476562,36.498047,36.566406,36.68164,36.839844,37.03711,37.26953,37.53125,37.816406,38.117188,38.42383,38.73242,39.029297,39.3125,39.56836,39.79492,39.98633,40.13867,40.25,40.322266,40.36133,40.375,40.376953,40.376953,40.376953,40.376953,40.376953,40.376953,40.376953,40.376953,40.376953,40.376953,40.376953,40.376953,40.376953,40.376953,40.376953,40.376953,40.376953,40.376953,40.376953,40.376953,40.376953,40.376953,40.376953,40.376953,40.376953,40.376953,40.376953,40.376953,40.376953,40.376953,40.376953,40.376953,40.376953,40.376953,40.382812,40.40625,40.453125,40.527344,40.626953,40.751953,40.90039,41.064453,41.242188,41.42383,41.60547,41.777344,41.935547,42.07422,42.185547,42.26953,42.31836,42.33008,42.30664,42.242188,42.14258,42.00586,41.835938,41.634766,41.408203,41.160156,40.89453,40.615234,40.33008,40.039062,39.748047,39.45703,39.166016,38.88867,38.63672,38.42383,38.253906,38.13672,38.07422,38.06836,38.11914,38.222656,38.376953,38.57422,38.810547,39.078125,39.36914,39.67383,39.98633,40.29297,40.589844,40.865234,41.11133,41.322266,41.490234,41.609375,41.67578,41.6875,41.64258,41.541016,41.38867,41.1875,40.945312,40.67383,40.38672,40.097656,39.82422,39.57617,39.36328,39.19336,39.070312,38.998047,38.976562,39.00586,39.083984,39.20508,39.365234,39.558594,39.779297,40.01758,40.26953,40.523438,40.773438,41.009766,41.226562,41.414062,41.570312,41.683594,41.753906,41.77539,41.746094,41.666016,41.535156,41.359375,41.140625,40.88672,40.609375,40.320312,40.029297,39.742188,39.46289,39.197266,38.947266,38.720703,38.521484,38.353516,38.222656,38.13086,38.08008,38.072266,38.10742,38.183594,38.30078
-1.7014117E38,-1.7014117E38,-1.7014117E38,-1.7014117E38,-1.7014117E38,-1.7014117E38,-1.7014117E38,-1.7014117E38,-1.7014117E38,-1.7014117E38,-1.7014117E38,-1.7014117E38,-1.7014117E38,-1.7014117E38,37.26953,37.296875,37.339844,37.398438,37.476562,37.570312,37.68164,37.808594,37.94922,38.103516,38.26758,38.4375,38.61328,38.79297,38.970703,39.14453,39.3125,39.472656,39.621094,39.757812,39.878906,39.984375,40.072266,40.14258,40.195312,40.23242,40.253906,40.26172,40.259766,40.253906,40.246094,40.248047,40.26758,40.3125,40.38086,40.47461,40.59375,40.73047,40.88086,41.041016,41.203125,41.36133,41.507812,41.63867,41.748047,41.83008,41.878906,41.896484,41.876953,41.820312,41.726562,41.595703,41.433594,41.23828,41.015625,40.76953,40.503906,40.222656,39.933594,39.63867,39.341797,39.04297,38.748047,38.45117,38.158203,37.875,37.603516,37.34961,37.121094,36.921875,36.757812,36.632812,36.54883,36.51172,36.51953,36.57422,36.67383,36.81836,37.003906,37.222656,37.472656,37.748047,38.03711,38.335938,38.634766,38.927734,39.203125,39.45508,39.679688,39.867188,40.01758,40.126953,40.19922,40.23633,40.25,40.251953,40.251953,40.251953,40.251953,40.251953,40.251953,40.251953,40.251953,40.251953,40.251953,40.251953,40.251953,40.251953,40.251953,40.251953,40.251953,40.251953,40.251953,40.251953,40.251953,40.251953,40.251953,40.251953,40.251953,40.251953,40.251953,40.251953,40.251953,40.251953,40.251953,40.251953,40.251953,40.251953,40.251953,40.259766,40.283203,40.33008,40.404297,40.507812,40.634766,40.78711,40.95508,41.134766,41.320312,41.503906,41.679688,41.841797,41.98242,42.097656,42.183594,42.23242,42.246094,42.220703,42.158203,42.054688,41.916016,41.742188,41.539062,41.308594,41.054688,40.785156,40.5,40.208984,39.914062,39.617188,39.320312,39.023438,38.740234,38.484375,38.265625,38.09375,37.97461,37.910156,37.904297,37.95508,38.060547,38.216797,38.41992,38.660156,38.93164,39.228516,39.539062,39.85547,40.16992,40.470703,40.751953,41.001953,41.216797,41.38672,41.509766,41.57617,41.58789,41.54297,41.439453,41.283203,41.078125,40.83203,40.55664,40.26172,39.96875,39.689453,39.435547,39.21875,39.04492,38.921875,38.847656,38.82617,38.85547,38.933594,39.058594,39.220703,39.41797,39.64258,39.88672,40.14258,40.402344,40.65625,40.896484,41.117188,41.310547,41.466797,41.583984,41.65625,41.677734,41.648438,41.566406,41.433594,41.253906,41.029297,40.771484,40.48828,40.19336,39.898438,39.60547,39.31836,39.041016,38.78125,38.54297,38.328125,38.146484,37.998047,37.88867,37.81836,37.79297,37.808594,37.86914,37.966797
-1.7014117E38,-1.7014117E38,-1.7014117E38,-1.7014117E38,-1.7014117E38,-1.7014117E38,-1.7014117E38,-1.7014117E38,-1.7014117E38,-1.7014117E38,-1.7014117E38,-1.7014117E38,-1.7014117E38,-1.7014117E38,37.66211,37.685547,37.720703,37.771484,37.833984,37.910156,38.0,38.103516,38.216797,38.339844,38.470703,38.60742,38.748047,38.890625,39.033203,39.17383,39.308594,39.435547,39.55664,39.666016,39.76367,39.847656,39.91992,39.976562,40.021484,40.052734,40.072266,40.08008,40.08203,40.078125,40.07422,40.08008,40.10742,40.15625,40.234375,40.339844,40.46875,40.61914,40.785156,40.958984,41.13867,41.3125,41.478516,41.626953,41.751953,41.851562,41.91797,41.94922,41.94336,41.898438,41.816406,41.695312,41.539062,41.34961,41.13086,40.88867,40.623047,40.34375,40.052734,39.75586,39.45508,39.154297,38.853516,38.552734,38.25586,37.966797,37.6875,37.427734,37.191406,36.98242,36.80664,36.66992,36.57422,36.521484,36.515625,36.55664,36.64258,36.771484,36.941406,37.146484,37.382812,37.64453,37.921875,38.210938,38.5,38.783203,39.05078,39.296875,39.515625,39.69922,39.845703,39.953125,40.02539,40.0625,40.07617,40.07617,40.07617,40.07617,40.07617,40.07617,40.07617,40.07617,40.07617,40.07617,40.07617,40.07617,40.07617,40.07617,40.07617,40.07617,40.07617,40.07617,40.07617,40.07617,40.07617,40.07617,40.07617,40.07617,40.07617,40.07617,40.07617,40.07617,40.07617,40.07617,40.07617,40.07617,40.07617,40.07617,40.078125,40.083984,40.109375,40.158203,40.234375,40.339844,40.470703,40.625,40.79883,40.984375,41.17578,41.365234,41.54883,41.716797,41.86328,41.98633,42.07617,42.13086,42.15039,42.128906,42.06836,41.96875,41.83203,41.658203,41.45508,41.22461,40.96875,40.697266,40.410156,40.115234,39.816406,39.515625,39.214844,38.916016,38.628906,38.36914,38.146484,37.970703,37.847656,37.783203,37.773438,37.822266,37.92578,38.08203,38.28125,38.521484,38.79297,39.08789,39.398438,39.714844,40.029297,40.33008,40.609375,40.859375,41.072266,41.242188,41.36133,41.427734,41.4375,41.38867,41.283203,41.123047,40.914062,40.666016,40.384766,40.08789,39.789062,39.50586,39.25,39.029297,38.85547,38.728516,38.654297,38.632812,38.66211,38.742188,38.867188,39.033203,39.23242,39.460938,39.70703,39.966797,40.228516,40.48633,40.73047,40.95508,41.15039,41.308594,41.427734,41.5,41.521484,41.492188,41.408203,41.27539,41.091797,40.865234,40.603516,40.31836,40.01758,39.71875,39.41992,39.128906,38.845703,38.57617,38.328125,38.103516,37.910156,37.75,37.626953,37.54297,37.503906,37.50586,37.55078,37.63672
-1.7014117E38,-1.7014117E38,-1.7014117E38,-1.7014117E38,-1.7014117E38,-1.7014117E38,-1.7014117E38,-1.7014117E38,-1.7014117E38,-1.7014117E38,-1.7014117E38,-1.7014117E38,-1.7014117E38,-1.7014117E38,38.029297,38.04883,38.07617,38.11328,38.16211,38.220703,38.28711,38.365234,38.45117,38.54297,38.640625,38.74414,38.84961,38.95703,39.064453,39.16797,39.26953,39.365234,39.45508,39.539062,39.61133,39.67578,39.73047,39.77539,39.808594,39.83203,39.847656,39.85547,39.859375,39.85742,39.85547,39.865234,39.896484,39.95117,40.035156,40.148438,40.289062,40.44922,40.628906,40.81836,41.01172,41.203125,41.384766,41.55078,41.69336,41.810547,41.89258,41.941406,41.95117,41.91992,41.84961,41.740234,41.59375,41.414062,41.20117,40.96289,40.70117,40.42383,40.132812,39.833984,39.53125,39.228516,38.92578,38.623047,38.322266,38.029297,37.746094,37.48047,37.234375,37.01758,36.83203,36.683594,36.57422,36.509766,36.48828,36.51367,36.583984,36.697266,36.851562,37.041016,37.26367,37.509766,37.773438,38.04883,38.328125,38.59961,38.859375,39.097656,39.308594,39.48828,39.63086,39.73633,39.80664,39.84375,39.85547,39.85742,39.85742,39.85742,39.85742,39.85742,39.85742,39.85742,39.85742,39.85742,39.85742,39.85742,39.85742,39.85742,39.85742,39.85742,39.85742,39.85742,39.85742,39.85742,39.85742,39.85742,39.85742,39.85742,39.85742,39.85742,39.85742,39.85742,39.85742,39.85742,39.85742,39.85742,39.85742,39.85742,39.85742,39.865234,39.890625,39.939453,40.01953,40.126953,40.26367,40.42383,40.601562,40.79492,40.99414,41.19336,41.38672,41.564453,41.720703,41.851562,41.95117,42.01758,42.04297,42.03125,41.978516,41.884766,41.753906,41.585938,41.38672,41.158203,40.904297,40.632812,40.345703,40.05078,39.75,39.445312,39.14258,38.841797,38.55078,38.289062,38.0625,37.884766,37.757812,37.6875,37.67578,37.720703,37.81836,37.96875,38.164062,38.398438,38.664062,38.953125,39.257812,39.566406,39.875,40.16797,40.44336,40.6875,40.89453,41.058594,41.17383,41.234375,41.240234,41.1875,41.078125,40.914062,40.703125,40.45117,40.16797,39.867188,39.56836,39.28125,39.023438,38.80078,38.625,38.496094,38.421875,38.40039,38.429688,38.509766,38.63672,38.804688,39.00586,39.234375,39.484375,39.746094,40.009766,40.26953,40.51758,40.742188,40.939453,41.09961,41.21875,41.291016,41.314453,41.283203,41.20117,41.064453,40.88086,40.652344,40.38867,40.09961,39.79883,39.496094,39.19336,38.898438,38.61133,38.33789,38.08203,37.851562,37.648438,37.48047,37.347656,37.25586,37.20703,37.19922,37.234375,37.3125
-1.7014117E38,-1.7014117E38,-1.7014117E38,-1.7014117E38,-1.7014117E38,-1.7014117E38,-1.7014117E38,-1.7014117E38,-1.7014117E38,-1.7014117E38,-1.7014117E38,-1.7014117E38,-1.7014117E38,-1.7014117E38,38.36914,38.382812,38.402344,38.427734,38.460938,38.5,38.54492,38.595703,38.654297,38.714844,38.78125,38.84961,38.91992,38.992188,39.0625,39.132812,39.20117,39.265625,39.32617,39.38086,39.429688,39.472656,39.509766,39.539062,39.5625,39.58008,39.591797,39.597656,39.59961,39.59961,39.59961,39.61133,39.64453,39.703125,39.79297,39.91211,40.060547,40.23242,40.42383,40.626953,40.833984,41.041016,41.240234,41.421875,41.58203,41.714844,41.816406,41.88086,41.90625,41.890625,41.833984,41.73828,41.603516,41.43164,41.228516,40.996094,40.740234,40.464844,40.17578,39.878906,39.57617,39.271484,38.966797,38.66211,38.36133,38.064453,37.777344,37.50586,37.253906,37.029297,36.833984,36.67383,36.552734,36.47461,36.439453,36.44922,36.503906,36.59961,36.73828,36.91211,37.117188,37.347656,37.597656,37.85742,38.123047,38.384766,38.632812,38.86328,39.066406,39.240234,39.378906,39.48242,39.54883,39.585938,39.597656,39.59961,39.59961,39.59961,39.59961,39.59961,39.59961,39.59961,39.59961,39.59961,39.59961,39.59961,39.59961,39.59961,39.59961,39.59961,39.59961,39.59961,39.59961,39.59961,39.59961,39.59961,39.59961,39.59961,39.59961,39.59961,39.59961,39.59961,39.59961,39.59961,39.59961,39.59961,39.59961,39.59961,39.59961,39.60742,39.632812,39.685547,39.765625,39.878906,40.01953,40.185547,40.373047,40.57422,40.783203,40.99414,41.197266,41.38867,41.558594,41.70117,41.814453,41.89258,41.93164,41.93164,41.890625,41.80664,41.685547,41.52539,41.33203,41.109375,40.859375,40.589844,40.30664,40.01172,39.708984,39.40625,39.101562,38.79883,38.50586,38.242188,38.01367,37.83203,37.70117,37.626953,37.60742,37.64453,37.73633,37.876953,38.0625,38.28711,38.54297,38.820312,39.11328,39.414062,39.708984,39.992188,40.25586,40.490234,40.689453,40.84375,40.95117,41.00586,41.003906,40.945312,40.83203,40.666016,40.45117,40.195312,39.91211,39.609375,39.308594,39.021484,38.759766,38.539062,38.359375,38.23242,38.15625,38.134766,38.166016,38.246094,38.373047,38.541016,38.74414,38.97461,39.22461,39.48633,39.751953,40.01367,40.26172,40.48828,40.685547,40.847656,40.966797,41.041016,41.0625,41.033203,40.94922,40.8125,40.626953,40.398438,40.132812,39.841797,39.539062,39.234375,38.93164,38.634766,38.34375,38.06836,37.808594,37.57422,37.367188,37.19336,37.05664,36.960938,36.904297,36.89258,36.921875,36.99414
-1.7014117E38,-1.7014117E38,-1.7014117E38,-1.7014117E38,-1.7014117E38,-1.7014117E38,-1.7014117E38,-1.7014117E38,-1.7014117E38,-1.7014117E38,-1.7014117E38,-1.7014117E38,-1.7014117E38,-1.7014117E38,38.685547,38.69336,38.703125,38.716797,38.73242,38.751953,38.77539,38.802734,38.83203,38.86328,38.896484,38.93164,38.966797,39.003906,39.039062,39.07422,39.109375,39.14258,39.171875,39.19922,39.22461,39.248047,39.265625,39.28125,39.29297,39.302734,39.308594,39.310547,39.3125,39.3125,39.314453,39.32617,39.36133,39.42383,39.51758,39.64258,39.79883,39.978516,40.18164,40.396484,40.617188,40.839844,41.052734,41.251953,41.429688,41.58008,41.69922,41.779297,41.822266,41.822266,41.78125,41.69922,41.57617,41.416016,41.222656,40.998047,40.748047,40.476562,40.191406,39.896484,39.59375,39.289062,38.984375,38.679688,38.376953,38.078125,37.789062,37.51172,37.253906,37.021484,36.816406,36.646484,36.51367,36.421875,36.371094,36.365234,36.404297,36.484375,36.60547,36.76172,36.94922,37.164062,37.398438,37.64453,37.89453,38.14453,38.382812,38.601562,38.79883,38.966797,39.09961,39.19922,39.26367,39.29883,39.310547,39.3125,39.3125,39.3125,39.3125,39.3125,39.3125,39.3125,39.3125,39.3125,39.3125,39.3125,39.3125,39.3125,39.3125,39.3125,39.3125,39.3125,39.3125,39.3125,39.3125,39.3125,39.3125,39.3125,39.3125,39.3125,39.3125,39.3125,39.3125,39.3125,39.3125,39.3125,39.3125,39.3125,39.3125,39.320312,39.347656,39.402344,39.48633,39.601562,39.748047,39.92383,40.11914,40.33008,40.55078,40.77539,40.992188,41.197266,41.38086,41.541016,41.66992,41.76367,41.81836,41.83203,41.802734,41.734375,41.623047,41.47461,41.291016,41.07422,40.83203,40.56836,40.28711,39.99414,39.69336,39.38867,39.083984,38.779297,38.48828,38.220703,37.990234,37.804688,37.66992,37.589844,37.5625,37.591797,37.67383,37.802734,37.976562,38.1875,38.429688,38.69336,38.972656,39.25586,39.53711,39.80664,40.05664,40.277344,40.46289,40.60742,40.703125,40.748047,40.73828,40.67383,40.55664,40.384766,40.16797,39.91211,39.625,39.32422,39.021484,38.73242,38.472656,38.25,38.072266,37.94336,37.867188,37.845703,37.876953,37.95703,38.083984,38.251953,38.45508,38.685547,38.9375,39.19922,39.466797,39.728516,39.976562,40.203125,40.402344,40.564453,40.683594,40.757812,40.779297,40.748047,40.664062,40.529297,40.34375,40.11328,39.847656,39.55664,39.253906,38.947266,38.64453,38.345703,38.054688,37.777344,37.51758,37.28125,37.072266,36.896484,36.757812,36.658203,36.601562,36.585938,36.61328,36.683594
-1.7014117E38,-1.7014117E38,-1.7014117E38,-1.7014117E38,-1.7014117E38,-1.7014117E38,-1.7014117E38,-1.7014117E38,-1.7014117E38,-1.7014117E38,-1.7014117E38,-1.7014117E38,-1.7014117E38,-1.7014117E38,38.98828,38.98828,38.98828,38.98828,38.990234,38.990234,38.990234,38.992188,38.992188,38.99414,38.996094,38.996094,38.998047,39.0,39.0,39.001953,39.003906,39.003906,39.00586,39.00586,39.007812,39.007812,39.007812,39.009766,39.009766,39.009766,39.009766,39.009766,39.009766,39.009766,39.01172,39.02539,39.060547,39.125,39.222656,39.353516,39.51758,39.70703,39.91797,40.14453,40.378906,40.615234,40.84375,41.060547,41.253906,41.421875,41.55664,41.65625,41.714844,41.73242,41.70703,41.63867,41.529297,41.38086,41.195312,40.98047,40.73828,40.472656,40.191406,39.898438,39.597656,39.29297,38.98828,38.683594,38.378906,38.078125,37.78711,37.50586,37.242188,37.001953,36.789062,36.60742,36.46289,36.35742,36.29297,36.271484,36.29297,36.35742,36.460938,36.59961,36.771484,36.96875,37.185547,37.41797,37.654297,37.890625,38.117188,38.328125,38.515625,38.67578,38.804688,38.90039,38.96289,38.998047,39.009766,39.009766,39.009766,39.009766,39.009766,39.009766,39.009766,39.009766,39.009766,39.009766,39.009766,39.009766,39.009766,39.009766,39.009766,39.009766,39.009766,39.009766,39.009766,39.009766,39.009766,39.009766,39.009766,39.009766,39.009766,39.009766,39.009766,39.009766,39.009766,39.009766,39.009766,39.009766,39.009766,39.009766,39.009766,39.01953,39.046875,39.101562,39.189453,39.310547,39.464844,39.646484,39.851562,40.07422,40.30664,40.54297,40.77539,40.996094,41.197266,41.375,41.51953,41.63086,41.70117,41.73242,41.71875,41.664062,41.566406,41.429688,41.25586,41.04883,40.814453,40.554688,40.279297,39.98828,39.689453,39.38672,39.08008,38.777344,38.484375,38.216797,37.984375,37.79492,37.654297,37.566406,37.533203,37.552734,37.623047,37.740234,37.898438,38.095703,38.320312,38.56836,38.83008,39.097656,39.36133,39.615234,39.847656,40.054688,40.22461,40.35547,40.441406,40.476562,40.458984,40.38672,40.26172,40.08789,39.867188,39.609375,39.32422,39.021484,38.71875,38.43164,38.16992,37.947266,37.76953,37.640625,37.564453,37.54297,37.57422,37.654297,37.78125,37.94922,38.152344,38.384766,38.634766,38.898438,39.164062,39.42578,39.67383,39.902344,40.09961,40.26172,40.382812,40.45508,40.478516,40.447266,40.36328,40.226562,40.041016,39.810547,39.546875,39.253906,38.95117,38.646484,38.341797,38.04297,37.751953,37.47461,37.214844,36.976562,36.76953,36.591797,36.453125,36.353516,36.29492,36.28125,36.308594,36.376953
-1.7014117E38,-1.7014117E38,-1.7014117E38,-1.7014117E38,-1.7014117E38,-1.7014117E38,-1.7014117E38,-1.7014117E38,-1.7014117E38,-1.7014117E38,-1.7014117E38,-1.7014117E38,-1.7014117E38,-1.7014117E38,39.289062,39.283203,39.273438,39.26172,39.246094,39.226562,39.20508,39.18164,39.154297,39.125,39.09375,39.060547,39.027344,38.99414,38.960938,38.927734,38.896484,38.865234,38.83789,38.810547,38.78711,38.76758,38.75,38.734375,38.72461,38.714844,38.710938,38.70703,38.70508,38.70508,38.70703,38.720703,38.757812,38.82422,38.92578,39.0625,39.23047,39.427734,39.65039,39.88867,40.13672,40.38672,40.63086,40.86328,41.07422,41.259766,41.41211,41.529297,41.60547,41.63867,41.628906,41.57422,41.478516,41.341797,41.16797,40.960938,40.72461,40.466797,40.1875,39.898438,39.597656,39.29492,38.990234,38.685547,38.38086,38.08008,37.783203,37.5,37.23242,36.984375,36.76172,36.570312,36.414062,36.29492,36.216797,36.179688,36.185547,36.23047,36.316406,36.439453,36.591797,36.773438,36.97461,37.189453,37.414062,37.63672,37.851562,38.052734,38.23242,38.38672,38.509766,38.601562,38.66211,38.695312,38.70703,38.70703,38.70703,38.70703,38.70703,38.70703,38.70703,38.70703,38.70703,38.70703,38.70703,38.70703,38.70703,38.70703,38.708984,38.708984,38.708984,38.708984,38.708984,38.708984,38.708984,38.708984,38.708984,38.708984,38.708984,38.708984,38.708984,38.708984,38.70703,38.70703,38.70703,38.70703,38.70703,38.70703,38.70703,38.716797,38.74414,38.802734,38.89258,39.01953,39.177734,39.367188,39.58203,39.816406,40.0625,40.3125,40.558594,40.79492,41.01367,41.20703,41.371094,41.498047,41.58789,41.632812,41.63672,41.595703,41.51367,41.38867,41.22461,41.027344,40.80078,40.546875,40.27539,39.98828,39.691406,39.38867,39.083984,38.779297,38.48633,38.216797,37.98242,37.791016,37.64453,37.55078,37.507812,37.51758,37.57617,37.679688,37.82422,38.00586,38.214844,38.445312,38.689453,38.939453,39.185547,39.421875,39.63867,39.828125,39.98633,40.103516,40.17578,40.20117,40.17383,40.095703,39.964844,39.78711,39.564453,39.304688,39.01953,38.716797,38.414062,38.126953,37.865234,37.64258,37.464844,37.335938,37.26172,37.23828,37.26953,37.351562,37.478516,37.646484,37.84961,38.08008,38.33203,38.59375,38.86133,39.123047,39.371094,39.597656,39.796875,39.958984,40.078125,40.152344,40.17383,40.14453,40.060547,39.92383,39.73828,39.507812,39.242188,38.95117,38.648438,38.34375,38.039062,37.740234,37.44922,37.171875,36.91211,36.67578,36.466797,36.291016,36.15039,36.05078,35.99414,35.978516,36.00586,36.07422
-1.7014117E38,-1.7014117E38,-1.7014117E38,-1.7014117E38,-1.7014117E38,-1.7014117E38,-1.7014117E38,-1.7014117E38,-1.7014117E38,-1.7014117E38,-1.7014117E38,-1.7014117E38,-1.7014117E38,-1.7014117E38,39.601562,39.589844,39.570312,39.54492,39.51367,39.476562,39.43164,39.382812,39.32617,39.26758,39.203125,39.13672,39.06836,39.0,38.93164,38.86328,38.796875,38.734375,38.67578,38.623047,38.57422,38.53125,38.49414,38.464844,38.441406,38.42383,38.41211,38.40625,38.402344,38.40039,38.402344,38.416016,38.453125,38.521484,38.626953,38.76758,38.94336,39.148438,39.378906,39.628906,39.890625,40.15625,40.416016,40.664062,40.89258,41.095703,41.26758,41.402344,41.496094,41.546875,41.554688,41.515625,41.435547,41.310547,41.148438,40.95117,40.722656,40.470703,40.197266,39.910156,39.61328,39.310547,39.00586,38.70117,38.396484,38.095703,37.796875,37.509766,37.23633,36.98242,36.751953,36.55078,36.382812,36.25,36.158203,36.10547,36.09375,36.123047,36.191406,36.29492,36.43164,36.595703,36.779297,36.98047,37.189453,37.398438,37.601562,37.79297,37.96289,38.11133,38.228516,38.31836,38.376953,38.408203,38.41797,38.41992,38.41992,38.41992,38.41992,38.41992,38.41992,38.41992,38.41992,38.421875,38.421875,38.421875,38.421875,38.42383,38.42383,38.42383,38.42383,38.42383,38.42383,38.42578,38.42578,38.42578,38.42578,38.42383,38.42383,38.42383,38.42383,38.42383,38.421875,38.421875,38.421875,38.421875,38.41992,38.41992,38.41992,38.427734,38.45703,38.515625,38.609375,38.73828,38.902344,39.09961,39.32422,39.56836,39.82422,40.08789,40.34961,40.601562,40.835938,41.046875,41.228516,41.373047,41.478516,41.54297,41.5625,41.53711,41.466797,41.35547,41.203125,41.015625,40.796875,40.55078,40.283203,40.0,39.70508,39.402344,39.09961,38.79492,38.501953,38.23242,37.996094,37.80078,37.65039,37.54883,37.496094,37.496094,37.541016,37.63086,37.76172,37.92578,38.117188,38.328125,38.554688,38.785156,39.01172,39.23047,39.427734,39.601562,39.74414,39.847656,39.908203,39.921875,39.88672,39.80078,39.666016,39.484375,39.259766,39.0,38.71289,38.41211,38.11133,37.82422,37.564453,37.34375,37.166016,37.039062,36.96289,36.94336,36.97461,37.05664,37.183594,37.353516,37.55664,37.78711,38.039062,38.302734,38.570312,38.83203,39.08008,39.30664,39.50586,39.66797,39.78711,39.86133,39.882812,39.853516,39.76953,39.632812,39.44922,39.21875,38.95508,38.664062,38.36133,38.05664,37.753906,37.45508,37.164062,36.88672,36.626953,36.390625,36.18164,36.00586,35.867188,35.76758,35.708984,35.69336,35.720703,35.789062
-1.7014117E38,-1.7014117E38,-1.7014117E38,-1.7014117E38,-1.7014117E38,-1.7014117E38,-1.7014117E38,-1.7014117E38,-1.7014117E38,-1.7014117E38,-1.7014117E38,-1.7014117E38,-1.7014117E38,-1.7014117E38,39.935547,39.916016,39.88867,39.84961,39.802734,39.746094,39.679688,39.603516,39.51953,39.429688,39.333984,39.23242,39.128906,39.023438,38.91992,38.816406,38.714844,38.61914,38.529297,38.447266,38.373047,38.30664,38.251953,38.20508,38.16797,38.140625,38.121094,38.109375,38.103516,38.101562,38.09961,38.11328,38.15039,38.220703,38.328125,38.472656,38.652344,38.867188,39.10742,39.367188,39.64258,39.921875,40.197266,40.46289,40.710938,40.93164,41.123047,41.277344,41.390625,41.460938,41.48633,41.466797,41.40039,41.291016,41.14258,40.95703,40.73828,40.49414,40.226562,39.94336,39.65039,39.34961,39.046875,38.742188,38.439453,38.13672,37.83789,37.54883,37.26953,37.009766,36.771484,36.560547,36.382812,36.23828,36.13086,36.0625,36.035156,36.046875,36.097656,36.185547,36.302734,36.44922,36.617188,36.80078,36.99414,37.191406,37.382812,37.5625,37.72461,37.86328,37.976562,38.060547,38.117188,38.148438,38.158203,38.158203,38.158203,38.160156,38.160156,38.160156,38.160156,38.16211,38.16211,38.164062,38.166016,38.16797,38.16797,38.16992,38.171875,38.17383,38.17383,38.17578,38.17578,38.17578,38.17578,38.17578,38.17578,38.17578,38.17578,38.17383,38.171875,38.171875,38.16992,38.16797,38.166016,38.164062,38.16211,38.160156,38.158203,38.166016,38.19336,38.253906,38.347656,38.48047,38.648438,38.851562,39.08203,39.335938,39.60547,39.88086,40.15625,40.421875,40.671875,40.90039,41.097656,41.259766,41.382812,41.464844,41.5,41.490234,41.435547,41.33789,41.19922,41.021484,40.810547,40.572266,40.310547,40.03125,39.740234,39.441406,39.13867,38.835938,38.54492,38.27539,38.03711,37.835938,37.68164,37.572266,37.509766,37.496094,37.527344,37.601562,37.714844,37.859375,38.03125,38.222656,38.42578,38.63672,38.841797,39.039062,39.21875,39.375,39.5,39.58789,39.634766,39.63867,39.59375,39.501953,39.36328,39.177734,38.953125,38.695312,38.410156,38.11133,37.8125,37.529297,37.271484,37.052734,36.878906,36.753906,36.68164,36.66211,36.695312,36.779297,36.910156,37.08008,37.285156,37.51758,37.76953,38.033203,38.30078,38.5625,38.8125,39.039062,39.23633,39.398438,39.51953,39.59375,39.615234,39.585938,39.503906,39.367188,39.183594,38.95508,38.691406,38.402344,38.09961,37.796875,37.496094,37.197266,36.908203,36.632812,36.375,36.13867,35.93164,35.75586,35.615234,35.515625,35.45703,35.439453,35.466797,35.533203
-1.7014117E38,-1.7014117E38,-1.7014117E38,-1.7014117E38,-1.7014117E38,-1.7014117E38,-1.7014117E38,-1.7014117E38,-1.7014117E38,-1.7014117E38,-1.7014117E38,-1.7014117E38,-1.7014117E38,-1.7014117E38,40.29297,40.26758,40.23047,40.179688,40.117188,40.041016,39.95117,39.84961,39.73828,39.617188,39.48828,39.353516,39.214844,39.072266,38.93164,38.791016,38.65625,38.527344,38.404297,38.29297,38.189453,38.09961,38.023438,37.958984,37.908203,37.86914,37.841797,37.82422,37.814453,37.808594,37.804688,37.816406,37.851562,37.921875,38.029297,38.177734,38.36328,38.583984,38.83203,39.103516,39.390625,39.683594,39.976562,40.259766,40.52539,40.76758,40.978516,41.154297,41.289062,41.38086,41.427734,41.42578,41.378906,41.28711,41.154297,40.98242,40.77539,40.539062,40.28125,40.003906,39.714844,39.416016,39.117188,38.816406,38.51367,38.21289,37.914062,37.623047,37.341797,37.07617,36.83203,36.61328,36.421875,36.265625,36.146484,36.0625,36.01953,36.015625,36.04883,36.117188,36.216797,36.345703,36.496094,36.664062,36.841797,37.023438,37.20117,37.371094,37.523438,37.65625,37.76172,37.84375,37.896484,37.92578,37.935547,37.935547,37.935547,37.935547,37.9375,37.9375,37.939453,37.941406,37.945312,37.947266,37.95117,37.95508,37.95703,37.960938,37.964844,37.966797,37.970703,37.972656,37.97461,37.97461,37.976562,37.976562,37.97461,37.97461,37.972656,37.96875,37.966797,37.96289,37.958984,37.95508,37.95117,37.947266,37.94336,37.9375,37.933594,37.939453,37.964844,38.023438,38.11914,38.251953,38.42383,38.63086,38.867188,39.128906,39.40625,39.691406,39.98047,40.259766,40.52539,40.76758,40.98242,41.16211,41.302734,41.40039,41.453125,41.460938,41.421875,41.33789,41.21289,41.04883,40.847656,40.61914,40.365234,40.091797,39.804688,39.507812,39.208984,38.908203,38.61914,38.34961,38.109375,37.90625,37.74414,37.626953,37.554688,37.527344,37.54297,37.597656,37.691406,37.814453,37.96289,38.13086,38.310547,38.496094,38.677734,38.851562,39.009766,39.146484,39.251953,39.32422,39.359375,39.34961,39.29883,39.19922,39.05664,38.871094,38.648438,38.39258,38.11133,37.81836,37.52539,37.246094,36.99414,36.779297,36.609375,36.48828,36.421875,36.40625,36.44336,36.529297,36.66211,36.835938,37.04297,37.277344,37.529297,37.79492,38.0625,38.32617,38.57422,38.802734,39.0,39.16211,39.283203,39.35742,39.38086,39.351562,39.26953,39.134766,38.95117,38.72461,38.46289,38.177734,37.876953,37.57617,37.277344,36.98242,36.697266,36.421875,36.166016,35.93164,35.72461,35.55078,35.41211,35.310547,35.251953,35.23242,35.25586,35.320312
-1.7014117E38,-1.7014117E38,-1.7014117E38,-1.7014117E38,-1.7014117E38,-1.7014117E38,-1.7014117E38,-1.7014117E38,-1.7014117E38,-1.7014117E38,-1.7014117E38,-1.7014117E38,-1.7014117E38,-1.7014117E38,40.671875,40.640625,40.59375,40.53125,40.453125,40.35742,40.248047,40.123047,39.98242,39.83203,39.671875,39.501953,39.32617,39.15039,38.970703,38.79492,38.623047,38.458984,38.304688,38.16211,38.03125,37.916016,37.816406,37.73242,37.666016,37.615234,37.578125,37.552734,37.53711,37.527344,37.521484,37.527344,37.560547,37.628906,37.73633,37.88672,38.07422,38.30078,38.55664,38.83789,39.13672,39.445312,39.753906,40.054688,40.339844,40.603516,40.835938,41.035156,41.19336,41.30664,41.375,41.396484,41.371094,41.29883,41.183594,41.027344,40.833984,40.61133,40.36133,40.091797,39.808594,39.515625,39.220703,38.921875,38.625,38.32617,38.029297,37.73633,37.453125,37.185547,36.935547,36.708984,36.509766,36.341797,36.208984,36.11328,36.054688,36.033203,36.04883,36.09961,36.18164,36.29297,36.42578,36.57617,36.73828,36.904297,37.06836,37.226562,37.36914,37.492188,37.59375,37.66992,37.720703,37.748047,37.757812,37.757812,37.757812,37.757812,37.759766,37.76172,37.765625,37.76953,37.773438,37.779297,37.785156,37.791016,37.79883,37.804688,37.810547,37.816406,37.822266,37.82617,37.828125,37.83203,37.83203,37.83203,37.83008,37.828125,37.82422,37.820312,37.814453,37.808594,37.802734,37.79492,37.78711,37.779297,37.76953,37.76172,37.753906,37.753906,37.777344,37.833984,37.92578,38.060547,38.23242,38.441406,38.68164,38.947266,39.23242,39.527344,39.82422,40.117188,40.39453,40.652344,40.882812,41.078125,41.23633,41.351562,41.42383,41.447266,41.42578,41.35742,41.248047,41.095703,40.908203,40.689453,40.44336,40.177734,39.896484,39.60547,39.310547,39.01367,38.726562,38.458984,38.21875,38.01367,37.845703,37.71875,37.632812,37.589844,37.58789,37.623047,37.69336,37.791016,37.914062,38.054688,38.20703,38.365234,38.521484,38.66992,38.804688,38.91797,39.003906,39.060547,39.08008,39.060547,39.0,38.896484,38.751953,38.566406,38.347656,38.095703,37.822266,37.53711,37.25,36.978516,36.734375,36.527344,36.365234,36.251953,36.189453,36.18164,36.22461,36.314453,36.45117,36.628906,36.83789,37.07422,37.33008,37.595703,37.865234,38.128906,38.376953,38.60547,38.802734,38.964844,39.085938,39.158203,39.183594,39.154297,39.07422,38.941406,38.759766,38.53711,38.279297,37.996094,37.69922,37.404297,37.10742,36.816406,36.533203,36.26367,36.009766,35.779297,35.57422,35.40039,35.26367,35.16211,35.101562,35.08008,35.09961,35.160156
-1.7014117E38,-1.7014117E38,-1.7014117E38,-1.7014117E38,-1.7014117E38,-1.7014117E38,-1.7014117E38,-1.7014117E38,-1.7014117E38,-1.7014117E38,-1.7014117E38,-1.7014117E38,-1.7014117E38,-1.7014117E38,41.066406,41.029297,40.97461,40.902344,40.808594,40.697266,40.566406,40.41797,40.251953,40.072266,39.878906,39.677734,39.46875,39.25586,39.041016,38.828125,38.621094,38.42383,38.234375,38.060547,37.902344,37.759766,37.63672,37.533203,37.44922,37.382812,37.335938,37.30078,37.279297,37.26367,37.251953,37.253906,37.283203,37.347656,37.453125,37.601562,37.79297,38.021484,38.285156,38.57422,38.882812,39.20508,39.529297,39.847656,40.152344,40.4375,40.69336,40.916016,41.097656,41.23828,41.33008,41.376953,41.375,41.32422,41.228516,41.091797,40.916016,40.70703,40.46875,40.208984,39.933594,39.646484,39.35547,39.064453,38.771484,38.476562,38.18164,37.890625,37.609375,37.33789,37.083984,36.851562,36.646484,36.46875,36.32422,36.214844,36.140625,36.103516,36.103516,36.13672,36.20117,36.29297,36.408203,36.541016,36.685547,36.83789,36.98828,37.132812,37.265625,37.38086,37.47461,37.546875,37.59375,37.61914,37.628906,37.628906,37.628906,37.63086,37.632812,37.63672,37.640625,37.648438,37.65625,37.666016,37.67578,37.685547,37.695312,37.70703,37.716797,37.726562,37.734375,37.740234,37.746094,37.75,37.751953,37.751953,37.75,37.746094,37.740234,37.73242,37.72461,37.71289,37.703125,37.689453,37.677734,37.664062,37.65039,37.63672,37.623047,37.61914,37.63672,37.6875,37.777344,37.90625,38.078125,38.285156,38.527344,38.796875,39.085938,39.38672,39.69336,39.99414,40.285156,40.554688,40.80078,41.01172,41.1875,41.320312,41.408203,41.45117,41.447266,41.396484,41.30078,41.166016,40.992188,40.785156,40.55078,40.29297,40.01953,39.73633,39.445312,39.154297,38.873047,38.60742,38.367188,38.158203,37.98242,37.845703,37.748047,37.6875,37.666016,37.677734,37.720703,37.791016,37.884766,37.996094,38.11914,38.246094,38.373047,38.49414,38.601562,38.691406,38.757812,38.79492,38.80078,38.76953,38.70117,38.595703,38.44922,38.26758,38.052734,37.810547,37.546875,37.271484,36.996094,36.73633,36.501953,36.304688,36.152344,36.04883,35.996094,35.99414,36.04492,36.14258,36.285156,36.464844,36.679688,36.91797,37.17578,37.44336,37.71289,37.976562,38.226562,38.453125,38.65039,38.810547,38.93164,39.003906,39.029297,39.0,38.921875,38.791016,38.61328,38.39453,38.140625,37.86328,37.572266,37.28125,36.992188,36.70703,36.427734,36.16211,35.914062,35.6875,35.48633,35.314453,35.177734,35.07617,35.01367,34.990234,35.00586,35.060547
-1.7014117E38,-1.7014117E38,-1.7014117E38,-1.7014117E38,-1.7014117E38,-1.7014117E38,-1.7014117E38,-1.7014117E38,-1.7014117E38,-1.7014117E38,-1.7014117E38,-1.7014117E38,-1.7014117E38,-1.7014117E38,41.472656,41.429688,41.367188,41.283203,41.177734,41.05078,40.90039,40.73047,40.541016,40.333984,40.11133,39.878906,39.63672,39.38867,39.140625,38.89453,38.652344,38.41992,38.19922,37.992188,37.804688,37.63672,37.490234,37.365234,37.26172,37.18164,37.11914,37.07617,37.04492,37.023438,37.003906,36.998047,37.021484,37.08203,37.183594,37.33008,37.51953,37.751953,38.01758,38.314453,38.632812,38.966797,39.304688,39.640625,39.964844,40.271484,40.55078,40.796875,41.00586,41.171875,41.29297,41.36328,41.38672,41.36133,41.289062,41.171875,41.015625,40.822266,40.59961,40.351562,40.085938,39.80664,39.523438,39.23828,38.95117,38.66211,38.373047,38.085938,37.804688,37.533203,37.279297,37.04297,36.83008,36.64453,36.490234,36.367188,36.28125,36.228516,36.21289,36.228516,36.27539,36.34961,36.445312,36.5625,36.691406,36.82617,36.96289,37.095703,37.216797,37.322266,37.410156,37.476562,37.51953,37.54492,37.552734,37.554688,37.554688,37.554688,37.558594,37.564453,37.572266,37.58203,37.59375,37.60742,37.623047,37.63867,37.654297,37.66992,37.685547,37.69922,37.71289,37.722656,37.73047,37.73633,37.73828,37.73828,37.73633,37.73047,37.720703,37.710938,37.697266,37.68164,37.664062,37.64453,37.625,37.60547,37.583984,37.564453,37.54297,37.533203,37.54297,37.58789,37.671875,37.796875,37.96289,38.16797,38.408203,38.67578,38.966797,39.271484,39.583984,39.89258,40.19336,40.47461,40.73242,40.958984,41.15039,41.30078,41.40625,41.46875,41.48242,41.44922,41.373047,41.253906,41.095703,40.902344,40.679688,40.433594,40.16992,39.89258,39.61133,39.32617,39.05078,38.789062,38.54883,38.33789,38.15625,38.009766,37.896484,37.81836,37.773438,37.759766,37.77539,37.816406,37.876953,37.95508,38.04492,38.140625,38.23633,38.32617,38.40625,38.470703,38.515625,38.533203,38.523438,38.484375,38.408203,38.29883,38.15625,37.978516,37.773438,37.541016,37.289062,37.027344,36.76758,36.51953,36.30078,36.117188,35.976562,35.884766,35.841797,35.851562,35.910156,36.01758,36.166016,36.353516,36.570312,36.814453,37.072266,37.341797,37.61133,37.875,38.123047,38.347656,38.54297,38.703125,38.822266,38.896484,38.91992,38.89258,38.816406,38.689453,38.515625,38.30078,38.052734,37.78125,37.498047,37.214844,36.93164,36.652344,36.382812,36.123047,35.88086,35.658203,35.460938,35.29492,35.158203,35.058594,34.99414,34.96875,34.978516,35.02539
-1.7014117E38,-1.7014117E38,-1.7014117E38,-1.7014117E38,-1.7014117E38,-1.7014117E38,-1.7014117E38,-1.7014117E38,-1.7014117E38,-1.7014117E38,-1.7014117E38,-1.7014117E38,-1.7014117E38,-1.7014117E38,41.876953,41.83008,41.76172,41.66992,41.552734,41.41211,41.246094,41.054688,40.84375,40.61133,40.36328,40.101562,39.83008,39.55078,39.26953,38.990234,38.714844,38.44922,38.197266,37.960938,37.74414,37.54883,37.376953,37.23047,37.109375,37.01172,36.9375,36.88086,36.839844,36.808594,36.78125,36.76758,36.783203,36.835938,36.93164,37.07422,37.26172,37.492188,37.76172,38.0625,38.38867,38.73047,39.083984,39.435547,39.779297,40.10547,40.408203,40.679688,40.916016,41.109375,41.25586,41.35742,41.40625,41.408203,41.36133,41.26758,41.13086,40.95703,40.75,40.515625,40.259766,39.992188,39.716797,39.441406,39.16211,38.88086,38.597656,38.316406,38.039062,37.76953,37.51367,37.27539,37.058594,36.867188,36.703125,36.572266,36.472656,36.40625,36.375,36.373047,36.404297,36.460938,36.541016,36.63867,36.75,36.871094,36.992188,37.11133,37.222656,37.31836,37.398438,37.458984,37.5,37.523438,37.53125,37.53125,37.533203,37.535156,37.539062,37.546875,37.558594,37.572266,37.58789,37.60742,37.628906,37.652344,37.67383,37.697266,37.71875,37.73828,37.75586,37.771484,37.783203,37.791016,37.79492,37.79492,37.789062,37.78125,37.76953,37.753906,37.734375,37.710938,37.6875,37.66211,37.632812,37.60547,37.57617,37.546875,37.51758,37.498047,37.5,37.535156,37.61133,37.726562,37.88672,38.085938,38.320312,38.585938,38.875,39.18164,39.496094,39.810547,40.117188,40.408203,40.677734,40.91797,41.125,41.291016,41.416016,41.496094,41.529297,41.515625,41.45703,41.35547,41.214844,41.03711,40.83008,40.595703,40.341797,40.07617,39.802734,39.527344,39.257812,39.001953,38.76367,38.54883,38.36133,38.203125,38.07617,37.976562,37.908203,37.86914,37.853516,37.86133,37.88867,37.93164,37.98633,38.046875,38.10742,38.166016,38.21875,38.25586,38.277344,38.279297,38.253906,38.203125,38.125,38.01367,37.875,37.70508,37.509766,37.291016,37.05664,36.8125,36.56836,36.33789,36.134766,35.966797,35.84375,35.765625,35.73633,35.757812,35.828125,35.94336,36.101562,36.29297,36.51758,36.76367,37.02539,37.29492,37.564453,37.82617,38.070312,38.29492,38.48828,38.646484,38.76172,38.833984,38.85742,38.83203,38.757812,38.632812,38.464844,38.25586,38.015625,37.751953,37.478516,37.203125,36.927734,36.658203,36.396484,36.146484,35.910156,35.695312,35.50586,35.341797,35.208984,35.109375,35.04492,35.015625,35.021484,35.060547
-1.7014117E38,-1.7014117E38,-1.7014117E38,-1.7014117E38,-1.7014117E38,-1.7014117E38,-1.7014117E38,-1.7014117E38,-1.7014117E38,-1.7014117E38,-1.7014117E38,-1.7014117E38,-1.7014117E38,-1.7014117E38,42.273438,42.222656,42.148438,42.05078,41.92383,41.771484,41.591797,41.384766,41.154297,40.902344,40.63086,40.34375,40.04297,39.73633,39.42578,39.115234,38.810547,38.51367,38.23242,37.966797,37.722656,37.5,37.304688,37.13672,36.99414,36.88086,36.789062,36.720703,36.66797,36.626953,36.58789,36.564453,36.570312,36.61328,36.70117,36.83789,37.01953,37.248047,37.51758,37.820312,38.152344,38.503906,38.865234,39.23242,39.59375,39.939453,40.265625,40.5625,40.82422,41.04492,41.222656,41.351562,41.429688,41.458984,41.439453,41.371094,41.257812,41.103516,40.914062,40.695312,40.453125,40.197266,39.933594,39.666016,39.398438,39.125,38.84961,38.57617,38.302734,38.039062,37.783203,37.54492,37.32617,37.13086,36.960938,36.820312,36.710938,36.632812,36.585938,36.570312,36.583984,36.623047,36.6875,36.76758,36.86328,36.96875,37.07617,37.18164,37.28125,37.36914,37.441406,37.496094,37.533203,37.554688,37.5625,37.5625,37.5625,37.566406,37.572266,37.58203,37.597656,37.617188,37.63867,37.666016,37.69336,37.72461,37.753906,37.785156,37.814453,37.841797,37.865234,37.884766,37.90039,37.91211,37.916016,37.916016,37.910156,37.898438,37.882812,37.86133,37.835938,37.804688,37.773438,37.73633,37.69922,37.660156,37.621094,37.58203,37.54297,37.51172,37.503906,37.529297,37.59375,37.70117,37.84961,38.039062,38.26758,38.52539,38.810547,39.11328,39.427734,39.74414,40.05664,40.35547,40.634766,40.88672,41.10742,41.289062,41.43164,41.529297,41.58203,41.589844,41.55078,41.46875,41.345703,41.185547,40.992188,40.773438,40.533203,40.277344,40.01367,39.748047,39.48828,39.23828,39.003906,38.789062,38.595703,38.42578,38.28125,38.16211,38.06836,38.0,37.953125,37.927734,37.91797,37.92383,37.941406,37.964844,37.992188,38.01758,38.039062,38.05078,38.05078,38.033203,37.996094,37.935547,37.851562,37.74414,37.609375,37.45117,37.26953,37.06836,36.851562,36.626953,36.404297,36.19336,36.01172,35.86328,35.75586,35.695312,35.683594,35.71875,35.80078,35.92578,36.091797,36.291016,36.51953,36.76953,37.03125,37.30078,37.570312,37.83008,38.072266,38.29297,38.48242,38.63672,38.75,38.820312,38.84375,38.81836,38.74414,38.625,38.46289,38.26172,38.029297,37.77539,37.51172,37.246094,36.98242,36.722656,36.470703,36.23047,36.00586,35.79883,35.615234,35.45703,35.328125,35.23047,35.166016,35.132812,35.132812,35.164062
-1.7014117E38,-1.7014117E38,-1.7014117E38,-1.7014117E38,-1.7014117E38,-1.7014117E38,-1.7014117E38,-1.7014117E38,-1.7014117E38,-1.7014117E38,-1.7014117E38,-1.7014117E38,-1.7014117E38,-1.7014117E38,42.648438,42.595703,42.51758,42.414062,42.28125,42.121094,41.929688,41.710938,41.464844,41.195312,40.904297,40.597656,40.27539,39.94336,39.60547,39.26953,38.9375,38.61328,38.302734,38.01172,37.740234,37.49414,37.27539,37.083984,36.921875,36.789062,36.683594,36.59961,36.535156,36.48047,36.43164,36.396484,36.38867,36.421875,36.5,36.626953,36.80078,37.023438,37.289062,37.591797,37.92578,38.283203,38.65625,39.033203,39.410156,39.77539,40.123047,40.44336,40.73047,40.98047,41.185547,41.34375,41.453125,41.51172,41.51953,41.476562,41.38867,41.25586,41.085938,40.884766,40.658203,40.414062,40.16211,39.908203,39.65039,39.38867,39.123047,38.85742,38.59375,38.333984,38.083984,37.847656,37.626953,37.429688,37.25586,37.10742,36.990234,36.90039,36.841797,36.8125,36.810547,36.835938,36.882812,36.947266,37.027344,37.115234,37.208984,37.302734,37.390625,37.46875,37.533203,37.583984,37.617188,37.63672,37.64258,37.64258,37.64453,37.648438,37.65625,37.66992,37.689453,37.71289,37.742188,37.777344,37.814453,37.853516,37.89258,37.93164,37.970703,38.00586,38.035156,38.0625,38.08203,38.095703,38.101562,38.101562,38.09375,38.08008,38.058594,38.03125,37.996094,37.958984,37.916016,37.86914,37.822266,37.771484,37.720703,37.66992,37.617188,37.57617,37.554688,37.56836,37.61914,37.71289,37.84961,38.027344,38.24414,38.492188,38.76953,39.06836,39.378906,39.69336,40.007812,40.310547,40.597656,40.859375,41.091797,41.291016,41.44922,41.564453,41.63672,41.664062,41.646484,41.583984,41.48047,41.33789,41.164062,40.958984,40.73242,40.490234,40.240234,39.98633,39.73633,39.49414,39.26367,39.046875,38.847656,38.66797,38.50586,38.367188,38.248047,38.148438,38.070312,38.007812,37.96289,37.929688,37.910156,37.896484,37.88672,37.88086,37.871094,37.85742,37.833984,37.79883,37.75,37.683594,37.597656,37.492188,37.365234,37.220703,37.054688,36.873047,36.679688,36.478516,36.277344,36.091797,35.93164,35.804688,35.71875,35.677734,35.68164,35.734375,35.83008,35.966797,36.14258,36.347656,36.58203,36.83203,37.097656,37.365234,37.63086,37.88672,38.125,38.339844,38.52539,38.67578,38.785156,38.851562,38.873047,38.847656,38.777344,38.66211,38.503906,38.3125,38.089844,37.845703,37.59375,37.339844,37.089844,36.841797,36.601562,36.373047,36.160156,35.96289,35.789062,35.63867,35.515625,35.41992,35.35547,35.320312,35.314453,35.33789
-1.7014117E38,-1.7014117E38,-1.7014117E38,-1.7014117E38,-1.7014117E38,-1.7014117E38,-1.7014117E38,-1.7014117E38,-1.7014117E38,-1.7014117E38,-1.7014117E38,-1.7014117E38,-1.7014117E38,-1.7014117E38,42.992188,42.939453,42.859375,42.753906,42.617188,42.44922,42.251953,42.02539,41.76953,41.48633,41.18164,40.85742,40.51758,40.166016,39.80664,39.447266,39.091797,38.74414,38.410156,38.09375,37.79883,37.529297,37.28711,37.07422,36.89453,36.742188,36.61914,36.521484,36.441406,36.375,36.310547,36.26367,36.24414,36.26367,36.328125,36.44336,36.609375,36.822266,37.08203,37.382812,37.714844,38.07422,38.453125,38.841797,39.23047,39.61133,39.978516,40.320312,40.632812,40.910156,41.14453,41.33203,41.470703,41.558594,41.595703,41.58008,41.51758,41.410156,41.259766,41.078125,40.867188,40.63867,40.398438,40.158203,39.91211,39.664062,39.410156,39.15625,38.90039,38.648438,38.404297,38.171875,37.95508,37.75586,37.58008,37.427734,37.302734,37.20508,37.13672,37.09375,37.08008,37.089844,37.121094,37.16992,37.234375,37.308594,37.38867,37.46875,37.54492,37.61328,37.671875,37.716797,37.746094,37.76367,37.76953,37.76953,37.771484,37.77539,37.78711,37.802734,37.828125,37.859375,37.896484,37.9375,37.984375,38.033203,38.083984,38.132812,38.18164,38.22461,38.26367,38.296875,38.322266,38.339844,38.347656,38.347656,38.33789,38.31836,38.29297,38.257812,38.214844,38.166016,38.11328,38.054688,37.99414,37.93164,37.867188,37.802734,37.73828,37.683594,37.648438,37.646484,37.68164,37.759766,37.882812,38.04492,38.248047,38.484375,38.75,39.039062,39.341797,39.654297,39.966797,40.271484,40.5625,40.833984,41.078125,41.289062,41.46289,41.597656,41.689453,41.73633,41.73828,41.697266,41.615234,41.492188,41.335938,41.148438,40.9375,40.710938,40.472656,40.23242,39.99414,39.759766,39.535156,39.31836,39.11328,38.921875,38.746094,38.585938,38.439453,38.3125,38.19922,38.101562,38.01953,37.94922,37.88867,37.83789,37.79492,37.753906,37.716797,37.67578,37.632812,37.58008,37.521484,37.44922,37.36328,37.26367,37.148438,37.01758,36.871094,36.71289,36.54297,36.36914,36.195312,36.035156,35.898438,35.796875,35.734375,35.71289,35.73828,35.804688,35.916016,36.066406,36.25,36.46289,36.70117,36.953125,37.216797,37.484375,37.746094,37.996094,38.228516,38.4375,38.615234,38.759766,38.86328,38.92578,38.945312,38.91992,38.851562,38.73828,38.589844,38.404297,38.19336,37.96289,37.722656,37.484375,37.246094,37.01172,36.78711,36.570312,36.36914,36.185547,36.021484,35.88086,35.76367,35.671875,35.609375,35.572266,35.5625,35.57617
-1.7014117E38,-1.7014117E38,-1.7014117E38,-1.7014117E38,-1.7014117E38,-1.7014117E38,-1.7014117E38,-1.7014117E38,-1.7014117E38,-1.7014117E38,-1.7014117E38,-1.7014117E38,-1.7014117E38,-1.7014117E38,43.296875,43.24414,43.164062,43.058594,42.91992,42.751953,42.55078,42.31836,42.05664,41.76758,41.453125,41.117188,40.76367,40.398438,40.02539,39.648438,39.273438,38.90625,38.55078,38.21289,37.896484,37.60547,37.34375,37.11133,36.910156,36.740234,36.601562,36.48633,36.390625,36.308594,36.23242,36.16797,36.134766,36.13867,36.191406,36.291016,36.445312,36.648438,36.898438,37.191406,37.521484,37.878906,38.26172,38.654297,39.054688,39.44922,39.833984,40.197266,40.53125,40.833984,41.095703,41.3125,41.48047,41.597656,41.664062,41.677734,41.640625,41.55664,41.429688,41.265625,41.07422,40.859375,40.634766,40.408203,40.177734,39.94336,39.703125,39.460938,39.216797,38.97461,38.73828,38.51172,38.29883,38.103516,37.92578,37.771484,37.64258,37.53711,37.458984,37.408203,37.38086,37.376953,37.39453,37.429688,37.48047,37.541016,37.60742,37.67383,37.740234,37.80078,37.851562,37.890625,37.91797,37.933594,37.9375,37.939453,37.939453,37.945312,37.958984,37.978516,38.007812,38.046875,38.091797,38.14453,38.20117,38.26172,38.322266,38.382812,38.441406,38.49414,38.54297,38.58203,38.61328,38.634766,38.64453,38.64453,38.632812,38.609375,38.57617,38.533203,38.48242,38.42383,38.35742,38.28711,38.21289,38.134766,38.05664,37.978516,37.898438,37.828125,37.779297,37.76172,37.779297,37.839844,37.94336,38.089844,38.273438,38.496094,38.746094,39.023438,39.316406,39.621094,39.929688,40.234375,40.529297,40.80664,41.058594,41.28125,41.470703,41.623047,41.73242,41.79883,41.822266,41.802734,41.742188,41.63867,41.501953,41.333984,41.140625,40.927734,40.70508,40.478516,40.253906,40.029297,39.808594,39.59375,39.384766,39.183594,38.992188,38.810547,38.640625,38.48242,38.33789,38.20508,38.083984,37.976562,37.878906,37.79297,37.71289,37.64258,37.57422,37.509766,37.447266,37.38086,37.3125,37.23633,37.154297,37.0625,36.958984,36.845703,36.720703,36.58789,36.445312,36.29883,36.154297,36.023438,35.914062,35.839844,35.80078,35.802734,35.847656,35.933594,36.058594,36.220703,36.414062,36.634766,36.875,37.13086,37.39258,37.654297,37.910156,38.154297,38.378906,38.578125,38.748047,38.884766,38.98242,39.041016,39.05664,39.029297,38.960938,38.853516,38.710938,38.53711,38.335938,38.11914,37.89453,37.66992,37.445312,37.226562,37.01758,36.816406,36.63086,36.460938,36.308594,36.177734,36.06836,35.984375,35.921875,35.884766,35.86914,35.876953
-1.7014117E38,-1.7014117E38,-1.7014117E38,-1.7014117E38,-1.7014117E38,-1.7014117E38,-1.7014117E38,-1.7014117E38,-1.7014117E38,-1.7014117E38,-1.7014117E38,-1.7014117E38,-1.7014117E38,-1.7014117E38,43.552734,43.5,43.42383,43.31836,43.183594,43.015625,42.816406,42.583984,42.322266,42.03125,41.71289,41.373047,41.01172,40.63867,40.253906,39.865234,39.476562,39.09375,38.722656,38.367188,38.033203,37.722656,37.441406,37.191406,36.972656,36.785156,36.626953,36.496094,36.384766,36.28711,36.19336,36.115234,36.064453,36.052734,36.08789,36.17383,36.310547,36.5,36.73828,37.021484,37.34375,37.69922,38.08008,38.476562,38.882812,39.289062,39.6875,40.06836,40.42383,40.75,41.03711,41.28125,41.478516,41.625,41.71875,41.759766,41.75,41.691406,41.58789,41.44336,41.26953,41.072266,40.86328,40.652344,40.4375,40.216797,39.992188,39.76367,39.533203,39.302734,39.07617,38.859375,38.652344,38.460938,38.285156,38.13086,37.998047,37.890625,37.804688,37.74414,37.70703,37.69336,37.697266,37.720703,37.757812,37.804688,37.85742,37.914062,37.970703,38.021484,38.066406,38.09961,38.123047,38.13672,38.140625,38.14258,38.14258,38.15039,38.166016,38.189453,38.22461,38.271484,38.32422,38.38672,38.45508,38.527344,38.59961,38.67383,38.742188,38.80664,38.86328,38.91211,38.94922,38.97461,88.74609,38.98633,38.972656,38.945312,38.904297,38.853516,38.79297,38.720703,38.64258,38.558594,38.46875,38.376953,38.283203,38.189453,38.09375,38.007812,37.941406,37.90625,37.90625,37.947266,38.029297,38.15625,38.320312,38.523438,38.75586,39.01758,39.29883,39.59375,39.89453,40.197266,40.490234,40.771484,41.03125,41.26367,41.466797,41.634766,41.76172,41.84961,41.89453,41.89453,41.85547,41.773438,41.65625,41.507812,41.33203,41.134766,40.927734,40.716797,40.50586,40.29297,40.08008,39.867188,39.654297,39.44336,39.23633,39.035156,38.841797,38.654297,38.478516,38.310547,38.154297,38.009766,37.876953,37.753906,37.64258,37.541016,37.447266,37.36133,37.279297,37.203125,37.126953,37.05078,36.970703,36.88867,36.80078,36.70703,36.60742,36.5,36.38867,36.273438,36.160156,36.058594,35.98047,35.93164,35.91992,35.947266,36.01172,36.117188,36.257812,36.43164,36.634766,36.859375,37.103516,37.35742,37.617188,37.873047,38.123047,38.35742,38.572266,38.76172,38.921875,39.046875,39.13672,39.1875,39.19922,39.16992,39.103516,39.0,38.865234,38.69922,38.51367,38.310547,38.101562,37.890625,37.683594,37.48242,37.28711,37.103516,36.933594,36.779297,36.640625,36.521484,36.42383,36.345703,36.28711,36.25,36.23242,36.23242
-1.7014117E38,-1.7014117E38,-1.7014117E38,-1.7014117E38,-1.7014117E38,-1.7014117E38,-1.7014117E38,-1.7014117E38,-1.7014117E38,-1.7014117E38,-1.7014117E38,-1.7014117E38,-1.7014117E38,-1.7014117E38,43.75,43.70117,43.628906,43.529297,43.398438,43.23633,43.04297,42.816406,42.558594,42.26953,41.95508,41.615234,41.25586,40.878906,40.490234,40.09375,39.697266,39.304688,38.921875,38.552734,38.20508,37.878906,37.58203,37.314453,37.078125,36.873047,36.697266,36.54883,36.421875,36.308594,36.19922,36.103516,36.035156,36.00586,36.023438,36.089844,36.208984,36.382812,36.60547,36.875,37.1875,37.535156,37.91211,38.308594,38.71875,39.13086,39.539062,39.935547,40.308594,40.65625,40.966797,41.23633,41.458984,41.634766,41.75586,41.82422,41.841797,41.80664,41.726562,41.60547,41.44922,41.26953,41.078125,40.882812,40.683594,40.48047,40.271484,40.05664,39.839844,39.623047,39.410156,39.203125,39.003906,38.81836,38.648438,38.496094,38.36328,38.251953,38.164062,38.095703,38.05078,38.027344,38.021484,38.03125,38.05664,38.091797,38.134766,38.179688,38.226562,38.26953,38.30664,38.335938,38.35742,38.367188,38.373047,38.373047,38.375,38.382812,38.40039,38.429688,38.470703,38.523438,38.58789,38.660156,38.740234,38.82422,38.910156,38.996094,39.078125,39.152344,39.21875,39.27539,39.31836,39.347656,39.36328,39.36328,39.345703,39.314453,39.26758,39.208984,39.13672,39.052734,38.960938,38.86133,38.75586,38.648438,38.539062,38.427734,38.31836,38.214844,38.13086,38.07422,38.054688,38.07422,38.134766,38.23828,38.38086,38.5625,38.77539,39.01758,39.283203,39.566406,39.85742,40.152344,40.445312,40.726562,40.990234,41.23242,41.447266,41.628906,41.77539,41.88086,41.945312,41.96875,41.94922,41.890625,41.79297,41.664062,41.50586,41.328125,41.13672,40.94336,40.746094,40.54492,40.339844,40.128906,39.914062,39.695312,39.47461,39.25586,39.03711,38.82422,38.615234,38.416016,38.226562,38.046875,37.878906,37.72461,37.58203,37.453125,37.335938,37.228516,37.132812,37.04492,36.964844,36.890625,36.81836,36.748047,36.677734,36.60547,36.53125,36.453125,36.373047,36.289062,36.208984,36.13867,36.091797,36.07422,36.089844,36.140625,36.228516,36.351562,36.507812,36.69336,36.904297,37.134766,37.378906,37.632812,37.88672,38.13672,38.375,38.59961,38.80078,38.978516,39.126953,39.240234,39.320312,39.36328,39.36914,39.33789,39.271484,39.171875,39.04297,38.88867,38.714844,38.527344,38.333984,38.140625,37.95117,37.765625,37.589844,37.42578,37.271484,37.134766,37.01172,36.90625,36.81836,36.75,36.697266,36.66211,36.64258,36.63672
-1.7014117E38,-1.7014117E38,-1.7014117E38,-1.7014117E38,-1.7014117E38,-1.7014117E38,-1.7014117E38,-1.7014117E38,-1.7014117E38,-1.7014117E38,-1.7014117E38,-1.7014117E38,-1.7014117E38,-1.7014117E38,43.88672,43.841797,43.77539,43.68164,43.560547,43.408203,43.222656,43.00586,42.757812,42.48047,42.17383,41.841797,41.48633,41.11328,40.726562,40.33203,39.93164,39.535156,39.14453,38.76758,38.408203,38.072266,37.759766,37.476562,37.22461,37.003906,36.8125,36.646484,36.501953,36.371094,36.24414,36.132812,36.04492,35.998047,35.99414,36.041016,36.14258,36.29492,36.5,36.753906,37.052734,37.38867,37.757812,38.15039,38.558594,38.97461,39.390625,39.796875,40.185547,40.55078,40.88086,41.17383,41.42383,41.623047,41.771484,41.867188,41.910156,41.90039,41.841797,41.742188,41.60547,41.445312,41.26953,41.091797,40.910156,40.722656,40.53125,40.333984,40.132812,39.929688,39.73047,39.535156,39.347656,39.16992,39.00586,38.85742,38.726562,38.615234,38.52539,38.453125,38.402344,38.371094,38.35547,38.35742,38.371094,38.396484,38.427734,38.464844,38.501953,38.53711,38.56836,38.591797,38.609375,38.61914,38.623047,38.623047,38.625,38.634766,38.65625,38.689453,38.73633,38.79883,38.871094,38.95508,39.046875,39.14453,39.24414,39.341797,39.4375,39.523438,39.59961,39.664062,39.714844,39.748047,39.765625,39.765625,39.746094,39.708984,39.65625,39.58789,39.503906,39.408203,39.30078,39.1875,39.066406,38.941406,38.814453,38.6875,38.560547,38.439453,38.335938,38.26172,38.220703,38.216797,38.253906,38.33203,38.45117,38.60742,38.79883,39.021484,39.26758,39.535156,39.814453,40.101562,40.38672,40.66797,40.935547,41.183594,41.408203,41.603516,41.76367,41.88867,41.972656,42.01758,42.01953,41.98242,41.90625,41.796875,41.658203,41.498047,41.32422,41.146484,40.964844,40.777344,40.58008,40.373047,40.15625,39.929688,39.69922,39.460938,39.222656,38.984375,38.748047,38.51758,38.296875,38.085938,37.88672,37.70117,37.53125,37.376953,37.23828,37.115234,37.00586,36.91211,36.83008,36.757812,36.695312,36.63867,36.58789,36.541016,36.492188,36.445312,36.396484,36.347656,36.30078,36.265625,36.25,36.26172,36.304688,36.38086,36.492188,36.632812,36.804688,37.001953,37.220703,37.453125,37.697266,37.947266,38.19336,38.435547,38.66211,38.873047,39.0625,39.22461,39.35742,39.458984,39.527344,39.560547,39.560547,39.52539,39.458984,39.36328,39.240234,39.097656,38.9375,38.765625,38.589844,38.41211,38.240234,38.07422,37.916016,37.76953,37.63672,37.515625,37.410156,37.320312,37.246094,37.1875,37.14258,37.11133,37.089844,37.08203
-1.7014117E38,-1.7014117E38,-1.7014117E38,-1.7014117E38,-1.7014117E38,-1.7014117E38,-1.7014117E38,-1.7014117E38,-1.7014117E38,-1.7014117E38,-1.7014117E38,-1.7014117E38,-1.7014117E38,-1.7014117E38,43.95703,43.91797,43.85742,43.773438,43.664062,43.523438,43.353516,43.152344,42.91992,42.65625,42.36328,42.04492,41.70117,41.339844,40.960938,40.570312,40.17578,39.779297,39.38867,39.00586,38.640625,38.29492,37.972656,37.677734,37.410156,37.17383,36.966797,36.785156,36.623047,36.47461,36.33008,36.19922,36.09375,36.02539,36.001953,36.027344,36.10547,36.23828,36.421875,36.658203,36.9375,37.259766,37.617188,38.0,38.404297,38.820312,39.240234,39.654297,40.052734,40.43164,40.78125,41.09375,41.365234,41.589844,41.76367,41.882812,41.95117,41.964844,41.929688,41.851562,41.734375,41.591797,41.433594,41.273438,41.109375,40.939453,40.765625,40.583984,40.40039,40.214844,40.029297,39.847656,39.671875,39.50586,39.34961,39.20703,39.08203,38.972656,38.88086,38.80664,38.751953,38.714844,38.69336,38.685547,38.691406,38.70703,38.73047,38.757812,38.78711,38.814453,38.839844,38.86133,38.875,38.882812,38.88672,38.88672,38.88867,38.90039,38.92383,38.960938,39.015625,39.083984,39.16797,39.26367,39.36914,39.478516,39.591797,39.703125,39.810547,39.908203,39.996094,40.06836,40.125,40.164062,40.183594,40.183594,40.16211,40.121094,40.058594,39.98047,39.88672,39.777344,39.65625,39.527344,39.390625,39.248047,39.103516,38.958984,38.814453,38.67578,38.554688,38.458984,38.39453,38.367188,38.378906,38.43164,38.523438,38.654297,38.822266,39.021484,39.248047,39.496094,39.76172,40.03711,40.316406,40.59375,40.86133,41.115234,41.347656,41.554688,41.73047,41.871094,41.97461,42.03711,42.060547,42.04492,41.990234,41.90039,41.78125,41.63867,41.48242,41.322266,41.15625,40.98242,40.79297,40.591797,40.375,40.14258,39.90039,39.648438,39.390625,39.128906,38.867188,38.61133,38.359375,38.121094,37.89258,37.68164,37.48633,37.310547,37.154297,37.01758,36.90039,36.80078,36.720703,36.654297,36.603516,36.564453,36.533203,36.509766,36.492188,36.476562,36.460938,36.447266,36.433594,36.43164,36.44922,36.492188,36.5625,36.664062,36.796875,36.95703,37.14258,37.34961,37.57422,37.810547,38.052734,38.29492,38.535156,38.76367,38.978516,39.17383,39.345703,39.492188,39.609375,39.695312,39.75,39.773438,39.76367,39.72461,39.658203,39.564453,39.44922,39.316406,39.16992,39.015625,38.85547,38.697266,38.54297,38.39453,38.25586,38.13086,38.015625,37.916016,37.828125,37.75586,37.695312,37.648438,37.61133,37.585938,37.566406,37.554688
-1.7014117E38,-1.7014117E38,-1.7014117E38,-1.7014117E38,-1.7014117E38,-1.7014117E38,-1.7014117E38,-1.7014117E38,-1.7014117E38,-1.7014117E38,-1.7014117E38,-1.7014117E38,-1.7014117E38,-1.7014117E38,43.958984,43.92578,43.875,43.804688,43.70703,43.583984,43.43164,43.25,43.03711,42.79297,42.521484,42.220703,41.896484,41.55078,41.185547,40.808594,40.421875,40.033203,39.64453,39.26367,38.89453,38.54492,38.214844,37.908203,37.63086,37.378906,37.15625,36.958984,36.779297,36.61328,36.453125,36.302734,36.179688,36.089844,36.04492,36.046875,36.101562,36.208984,36.371094,36.583984,36.84375,37.148438,37.490234,37.86133,38.257812,38.66797,39.08789,39.503906,39.91211,40.30078,40.664062,40.99414,41.285156,41.53125,41.726562,41.871094,41.960938,41.998047,41.984375,41.92578,41.83008,41.70508,41.564453,41.421875,41.27539,41.123047,40.966797,40.804688,40.63672,40.46875,40.29883,40.132812,39.970703,39.816406,39.66992,39.53711,39.416016,39.3125,39.222656,39.148438,39.091797,39.04883,39.023438,39.009766,39.007812,39.015625,39.03125,39.05078,39.072266,39.095703,39.115234,39.132812,39.14453,39.15039,39.152344,39.154297,39.15625,39.16797,39.19336,39.23633,39.296875,39.375,39.46875,39.57617,39.69336,39.816406,39.94336,40.06836,40.1875,40.296875,40.396484,40.478516,40.541016,40.583984,40.60547,40.60547,40.58203,40.535156,40.466797,40.378906,40.273438,40.15039,40.015625,39.86914,39.716797,39.558594,39.396484,39.234375,39.072266,38.916016,38.77539,38.658203,38.570312,38.51953,38.503906,38.53125,38.595703,38.69922,38.839844,39.01367,39.21875,39.447266,39.695312,39.95703,40.228516,40.5,40.76758,41.023438,41.26172,41.478516,41.66797,41.82422,41.945312,42.027344,42.072266,42.07422,42.041016,41.970703,41.871094,41.746094,41.609375,41.464844,41.316406,41.154297,40.976562,40.779297,40.5625,40.328125,40.07617,39.8125,39.53711,39.25586,38.972656,38.689453,38.416016,38.15039,37.898438,37.664062,37.44922,37.25586,37.083984,36.9375,36.814453,36.714844,36.63672,36.58008,36.54297,36.521484,36.51172,36.515625,36.52539,36.54297,36.560547,36.58203,36.603516,36.634766,36.685547,36.757812,36.85742,36.984375,37.13867,37.314453,37.51367,37.73047,37.958984,38.195312,38.433594,38.66992,38.898438,39.11328,39.3125,39.492188,39.646484,39.773438,39.873047,39.94336,39.98242,39.992188,39.97461,39.929688,39.86133,39.771484,39.66211,39.539062,39.40625,39.26758,39.125,38.984375,38.847656,38.71875,38.601562,38.496094,38.402344,38.322266,38.253906,38.19922,38.15625,38.121094,38.095703,38.07617,38.060547,38.04883
-1.7014117E38,-1.7014117E38,-1.7014117E38,-1.7014117E38,-1.7014117E38,-1.7014117E38,-1.7014117E38,-1.7014117E38,-1.7014117E38,-1.7014117E38,-1.7014117E38,-1.7014117E38,-1.7014117E38,-1.7014117E38,43.89258,43.867188,43.828125,43.76953,43.689453,43.585938,43.45508,43.296875,43.109375,42.890625,42.64258,42.367188,42.066406,41.742188,41.398438,41.039062,40.666016,40.289062,39.910156,39.533203,39.16797,38.814453,38.48047,38.166016,37.878906,37.615234,37.376953,37.164062,36.96875,36.785156,36.60742,36.439453,36.29492,36.185547,36.117188,36.095703,36.126953,36.208984,36.345703,36.533203,36.771484,37.054688,37.376953,37.73242,38.117188,38.51953,38.933594,39.34961,39.759766,40.15625,40.53125,40.875,41.18164,41.445312,41.66211,41.82617,41.9375,41.996094,42.003906,41.966797,41.88867,41.78125,41.658203,41.533203,41.404297,41.271484,41.13086,40.98633,40.83789,40.6875,40.535156,40.384766,40.23633,40.095703,39.96289,39.83789,39.726562,39.626953,39.541016,39.46875,39.41211,39.367188,39.33789,39.320312,39.3125,39.314453,39.322266,39.335938,39.351562,39.36914,39.384766,39.398438,39.408203,39.41211,39.414062,39.416016,39.41797,39.43164,39.460938,39.507812,39.57422,39.660156,39.76367,39.882812,40.01172,40.148438,40.289062,40.427734,40.558594,40.68164,40.789062,40.88086,40.95117,40.998047,41.023438,41.021484,40.99414,40.94336,40.86914,40.771484,40.654297,40.51953,40.36914,40.208984,40.039062,39.86328,39.685547,39.50586,39.32617,39.15039,38.990234,38.853516,38.742188,38.666016,38.625,38.623047,38.660156,38.73633,38.84961,38.998047,39.177734,39.384766,39.615234,39.86133,40.121094,40.384766,40.648438,40.90625,41.15039,41.375,41.57422,41.746094,41.882812,41.984375,42.046875,42.070312,42.054688,42.00586,41.92383,41.81836,41.697266,41.572266,41.4375,41.291016,41.121094,40.93164,40.716797,40.478516,40.220703,39.945312,39.65625,39.359375,39.05664,38.753906,38.458984,38.171875,37.90039,37.646484,37.416016,37.20703,37.027344,36.873047,36.748047,36.648438,36.578125,36.533203,36.509766,36.507812,36.523438,36.552734,36.59375,36.640625,36.69336,36.748047,36.804688,36.871094,36.953125,37.05664,37.183594,37.333984,37.50586,37.69922,37.910156,38.134766,38.365234,38.601562,38.833984,39.060547,39.277344,39.478516,39.660156,39.81836,39.953125,40.060547,40.140625,40.191406,40.214844,40.21289,40.183594,40.132812,40.0625,39.972656,39.871094,39.757812,39.63867,39.515625,39.390625,39.26758,39.148438,39.039062,38.941406,38.85547,38.783203,38.72461,38.677734,38.64258,38.615234,38.595703,38.58203,38.572266,38.5625,38.55078
-1.7014117E38,-1.7014117E38,-1.7014117E38,-1.7014117E38,-1.7014117E38,-1.7014117E38,-1.7014117E38,-1.7014117E38,-1.7014117E38,-1.7014117E38,-1.7014117E38,-1.7014117E38,-1.7014117E38,-1.7014117E38,43.759766,43.742188,43.714844,43.67383,43.61328,43.53125,43.42578,43.29297,43.132812,42.945312,42.728516,42.48242,42.208984,41.91211,41.59375,41.25586,40.904297,40.54297,40.17578,39.810547,39.44922,39.09961,38.76172,38.445312,38.148438,37.875,37.623047,37.39453,37.183594,36.984375,36.78711,36.603516,36.439453,36.308594,36.21875,36.171875,36.17578,36.23242,36.341797,36.503906,36.716797,36.97461,37.27539,37.61328,37.98242,38.373047,38.777344,39.189453,39.59961,40.0,40.38086,40.734375,41.054688,41.333984,41.566406,41.75,41.88086,41.958984,41.98633,41.966797,41.908203,41.81836,41.71289,41.603516,41.492188,41.376953,41.25586,41.128906,40.998047,40.865234,40.73047,40.595703,40.464844,40.33789,40.216797,40.103516,40.0,39.908203,39.828125,39.759766,39.70508,39.660156,39.628906,39.60742,39.595703,39.59375,39.595703,39.60547,39.615234,39.628906,39.640625,39.65039,39.658203,39.66211,39.664062,39.664062,39.666016,39.68164,39.71289,39.76367,39.83789,39.93164,40.04492,40.17383,40.316406,40.466797,40.61914,40.76953,40.914062,41.04883,41.166016,41.265625,41.34375,41.396484,41.421875,41.41992,41.39258,41.335938,41.253906,41.146484,41.01758,40.871094,40.70703,40.53125,40.345703,40.154297,39.958984,39.76172,39.564453,39.373047,39.19336,39.035156,38.902344,38.80078,38.734375,38.703125,38.71289,38.759766,38.845703,38.966797,39.121094,39.30664,39.515625,39.748047,39.99414,40.25,40.507812,40.765625,41.01172,41.242188,41.453125,41.63672,41.789062,41.90625,41.98633,42.029297,42.033203,42.001953,41.9375,41.84961,41.746094,41.63672,41.51953,41.384766,41.226562,41.04297,40.83203,40.59375,40.33008,40.046875,39.746094,39.435547,39.117188,38.79883,38.48633,38.183594,37.896484,37.628906,37.384766,37.16797,36.98047,36.822266,36.697266,36.60547,36.54297,36.509766,36.503906,36.523438,36.5625,36.61914,36.689453,36.76758,36.853516,36.941406,37.03125,37.13086,37.24414,37.376953,37.529297,37.703125,37.89453,38.103516,38.32422,38.552734,38.78711,39.01758,39.24414,39.460938,39.66211,39.845703,40.007812,40.146484,40.259766,40.345703,40.404297,40.435547,40.441406,40.42383,40.384766,40.32617,40.251953,40.164062,40.06836,39.964844,39.859375,39.75,39.64258,39.535156,39.435547,39.345703,39.26758,39.203125,39.15039,39.11328,39.08789,39.072266,39.0625,39.060547,39.060547,39.060547,39.058594,39.04883
-1.7014117E38,-1.7014117E38,-1.7014117E38,-1.7014117E38,-1.7014117E38,-1.7014117E38,-1.7014117E38,-1.7014117E38,-1.7014117E38,-1.7014117E38,-1.7014117E38,-1.7014117E38,-1.7014117E38,-1.7014117E38,43.564453,43.55664,43.54297,43.51758,43.478516,43.41992,43.341797,43.240234,43.11328,42.95703,42.773438,42.5625,42.322266,42.05664,41.76758,41.45703,41.13086,40.789062,40.441406,40.08789,39.73633,39.390625,39.054688,38.734375,38.43164,38.15039,37.88867,37.64453,37.41797,37.203125,36.990234,36.789062,36.60742,36.45508,36.341797,36.271484,36.248047,36.277344,36.359375,36.492188,36.677734,36.910156,37.1875,37.503906,37.851562,38.226562,38.621094,39.023438,39.429688,39.828125,40.21289,40.572266,40.902344,41.19336,41.441406,41.640625,41.789062,41.88672,41.93164,41.929688,41.88672,41.814453,41.72461,41.632812,41.53711,41.4375,41.333984,41.22461,41.11328,40.998047,40.88086,40.76367,40.646484,40.535156,40.427734,40.328125,40.23633,40.152344,40.078125,40.015625,39.96289,39.91992,39.88867,39.865234,39.851562,39.845703,39.845703,39.84961,39.85547,39.86328,39.873047,39.88086,39.884766,39.88867,39.890625,39.890625,39.89453,39.910156,39.94336,40.0,40.078125,40.18164,40.304688,40.44336,40.597656,40.759766,40.92578,41.08789,41.24414,41.390625,41.51758,41.625,41.708984,41.765625,41.79492,41.79297,41.76172,41.70117,41.61133,41.496094,41.35742,41.197266,41.01953,40.83008,40.628906,40.421875,40.208984,39.996094,39.783203,39.57617,39.378906,39.19922,39.04492,38.91797,38.82422,38.76758,38.748047,38.765625,38.82422,38.91797,39.046875,39.208984,39.398438,39.61328,39.845703,40.091797,40.34375,40.597656,40.845703,41.08203,41.30078,41.49414,41.660156,41.79297,41.890625,41.94922,41.970703,41.95703,41.91211,41.839844,41.751953,41.660156,41.55664,41.435547,41.289062,41.11133,40.904297,40.66797,40.402344,40.11328,39.804688,39.48242,39.154297,38.822266,38.496094,38.18164,37.882812,37.60547,37.353516,37.13086,36.941406,36.785156,36.664062,36.578125,36.527344,36.509766,36.523438,36.5625,36.626953,36.708984,36.808594,36.91992,37.03711,37.15625,37.279297,37.410156,37.552734,37.71289,37.890625,38.083984,38.29492,38.515625,38.74414,38.978516,39.210938,39.4375,39.654297,39.859375,40.04492,40.208984,40.351562,40.466797,40.55664,40.61914,40.65625,40.66797,40.654297,40.621094,40.570312,40.503906,40.42578,40.33789,40.246094,40.152344,40.058594,39.964844,39.873047,39.783203,39.69922,39.626953,39.56836,39.52539,39.49414,39.478516,39.47461,39.478516,39.490234,39.503906,39.51953,39.53125,39.53711,39.535156
-1.7014117E38,-1.7014117E38,-1.7014117E38,-1.7014117E38,-1.7014117E38,-1.7014117E38,-1.7014117E38,-1.7014117E38,-1.7014117E38,-1.7014117E38,-1.7014117E38,-1.7014117E38,-1.7014117E38,-1.7014117E38,43.3125,43.316406,43.314453,43.308594,43.291016,43.259766,43.210938,43.140625,43.046875,42.927734,42.78125,42.60742,42.404297,42.17383,41.91797,41.63867,41.339844,41.023438,40.695312,40.359375,40.01953,39.68164,39.351562,39.03125,38.72461,38.433594,38.16211,37.908203,37.666016,37.435547,37.208984,36.990234,36.791016,36.61914,36.48242,36.38672,36.33789,36.339844,36.39258,36.498047,36.652344,36.85742,37.109375,37.40039,37.726562,38.083984,38.460938,38.853516,39.251953,39.646484,40.029297,40.39258,40.728516,41.029297,41.28711,41.5,41.664062,41.77539,41.835938,41.851562,41.82422,41.76758,41.69336,41.617188,41.53711,41.453125,41.367188,41.27539,41.179688,41.08203,40.98242,40.882812,40.783203,40.685547,40.59375,40.50586,40.42383,40.351562,40.285156,40.228516,40.179688,40.140625,40.109375,40.08789,40.072266,40.0625,40.060547,40.060547,40.064453,40.070312,40.07617,40.08008,40.083984,40.08789,40.08789,40.08789,40.091797,40.109375,40.146484,40.20508,40.291016,40.40039,40.53125,40.68164,40.845703,41.01953,41.197266,41.373047,41.541016,41.695312,41.833984,41.94922,42.03711,42.09961,42.128906,42.126953,42.09375,42.029297,41.933594,41.810547,41.660156,41.490234,41.29883,41.095703,40.878906,40.658203,40.43164,40.203125,39.97461,39.75,39.535156,39.335938,39.160156,39.01172,38.89258,38.808594,38.76172,38.751953,38.78125,38.84961,38.953125,39.091797,39.26172,39.45703,39.67578,39.910156,40.15625,40.40625,40.654297,40.89453,41.11914,41.322266,41.5,41.646484,41.757812,41.833984,41.871094,41.873047,41.84375,41.789062,41.716797,41.63867,41.55078,41.44336,41.30664,41.13672,40.933594,40.69922,40.433594,40.140625,39.828125,39.498047,39.16211,38.822266,38.48828,38.166016,37.859375,37.57617,37.322266,37.097656,36.908203,36.757812,36.64453,36.56836,36.53125,36.529297,36.560547,36.623047,36.710938,36.820312,36.947266,37.08789,37.234375,37.384766,37.539062,37.69922,37.86914,38.05664,38.25586,38.46875,38.69336,38.92578,39.16211,39.398438,39.626953,39.847656,40.054688,40.24414,40.414062,40.558594,40.677734,40.76953,40.835938,40.875,40.88867,40.876953,40.845703,40.796875,40.73242,40.65625,40.57422,40.48633,40.398438,40.3125,40.23047,40.15039,40.07422,39.998047,39.93164,39.876953,39.83789,39.814453,39.804688,39.810547,39.828125,39.853516,39.884766,39.916016,39.947266,39.97461,39.990234,39.996094
-1.7014117E38,-1.7014117E38,-1.7014117E38,-1.7014117E38,-1.7014117E38,-1.7014117E38,-1.7014117E38,-1.7014117E38,-1.7014117E38,-1.7014117E38,-1.7014117E38,-1.7014117E38,-1.7014117E38,-1.7014117E38,43.01172,43.02539,43.039062,43.05078,43.05664,43.052734,43.033203,42.998047,42.939453,42.859375,42.751953,42.615234,42.453125,42.259766,42.041016,41.79492,41.527344,41.23828,40.933594,40.617188,40.29297,39.966797,39.64258,39.32422,39.015625,38.720703,38.439453,38.17383,37.91992,37.67578,37.433594,37.19922,36.98242,36.791016,36.634766,36.515625,36.441406,36.414062,36.4375,36.51367,36.63867,36.814453,37.03711,37.302734,37.60742,37.941406,38.302734,38.679688,39.066406,39.453125,39.83203,40.195312,40.533203,40.839844,41.10742,41.33008,41.503906,41.628906,41.70508,41.734375,41.722656,41.679688,41.61914,41.55664,41.492188,41.42383,41.353516,41.277344,41.19922,41.117188,41.035156,40.95117,40.867188,40.785156,40.70703,40.632812,40.564453,40.5,40.44336,40.39258,40.34961,40.314453,40.28711,40.265625,40.25,40.240234,40.234375,40.234375,40.234375,40.23828,40.242188,40.24414,40.248047,40.25,40.25,40.25,40.253906,40.273438,40.310547,40.375,40.464844,40.58203,40.720703,40.88086,41.054688,41.240234,41.427734,41.615234,41.79297,41.958984,42.103516,42.226562,42.322266,42.38672,42.41797,42.41797,42.38086,42.3125,42.210938,42.08008,41.91992,41.73828,41.53711,41.320312,41.091797,40.85547,40.615234,40.371094,40.128906,39.890625,39.658203,39.44336,39.246094,39.07422,38.933594,38.82422,38.75,38.714844,38.716797,38.757812,38.83789,38.953125,39.101562,39.28125,39.484375,39.70703,39.945312,40.189453,40.4375,40.679688,40.908203,41.121094,41.308594,41.466797,41.591797,41.68164,41.734375,41.751953,41.73633,41.695312,41.63867,41.57422,41.5,41.404297,41.277344,41.117188,40.91992,40.6875,40.42383,40.13086,39.814453,39.48242,39.14258,38.79883,38.458984,38.132812,37.82422,37.541016,37.285156,37.064453,36.88086,36.73633,36.632812,36.570312,36.546875,36.5625,36.615234,36.697266,36.810547,36.945312,37.09961,37.265625,37.441406,37.621094,37.802734,37.990234,38.1875,38.396484,38.617188,38.847656,39.085938,39.32617,39.56836,39.802734,40.029297,40.242188,40.4375,40.609375,40.759766,40.882812,40.98047,41.04883,41.089844,41.103516,41.09375,41.060547,41.009766,40.94336,40.865234,40.779297,40.691406,40.603516,40.51953,40.439453,40.367188,40.30078,40.23828,40.177734,40.126953,40.089844,40.066406,40.0625,40.07422,40.09961,40.13867,40.185547,40.23633,40.28711,40.335938,40.376953,40.40625,40.421875
-1.7014117E38,-1.7014117E38,-1.7014117E38,-1.7014117E38,-1.7014117E38,-1.7014117E38,-1.7014117E38,-1.7014117E38,-1.7014117E38,-1.7014117E38,-1.7014117E38,-1.7014117E38,-1.7014117E38,-1.7014117E38,42.671875,42.695312,42.72461,42.753906,42.783203,42.80664,42.81836,42.816406,42.796875,42.753906,42.685547,42.591797,42.46875,42.316406,42.134766,41.92578,41.689453,41.43164,41.152344,40.85742,40.55078,40.23633,39.91992,39.60742,39.29883,39.0,38.710938,38.435547,38.16992,37.91211,37.658203,37.410156,37.177734,36.96875,36.791016,36.648438,36.54883,36.496094,36.490234,36.53711,36.632812,36.779297,36.972656,37.210938,37.490234,37.80078,38.140625,38.501953,38.875,39.25,39.623047,39.98242,40.320312,40.628906,40.90039,41.13086,41.316406,41.45117,41.539062,41.58008,41.58008,41.55078,41.503906,41.45508,41.404297,41.34961,41.29297,41.23242,41.16797,41.103516,41.035156,40.96875,40.90039,40.833984,40.76953,40.70703,40.65039,40.597656,40.54883,40.50586,40.46875,40.439453,40.414062,40.39453,40.38086,40.36914,40.36328,40.36133,40.36133,40.36328,40.365234,40.367188,40.36914,40.371094,40.371094,40.371094,40.375,40.39453,40.435547,40.501953,40.597656,40.71875,40.867188,41.035156,41.21875,41.414062,41.61133,41.808594,41.996094,42.16992,42.32422,42.453125,42.552734,42.621094,42.654297,42.652344,42.615234,42.54297,42.435547,42.296875,42.13086,41.939453,41.726562,41.498047,41.25586,41.007812,40.753906,40.498047,40.242188,39.990234,39.74414,39.51172,39.296875,39.10547,38.941406,38.808594,38.708984,38.648438,38.626953,38.64453,38.69922,38.79297,38.921875,39.083984,39.271484,39.484375,39.71289,39.953125,40.197266,40.439453,40.67383,40.89258,41.08789,41.25586,41.39258,41.496094,41.5625,41.59375,41.591797,41.564453,41.51953,41.46875,41.40625,41.322266,41.20508,41.052734,40.86133,40.634766,40.373047,40.08008,39.765625,39.433594,39.091797,38.748047,38.410156,38.083984,37.777344,37.496094,37.246094,37.03125,36.85547,36.720703,36.628906,36.58008,36.57422,36.60742,36.679688,36.783203,36.91797,37.078125,37.25586,37.44922,37.65039,37.85547,38.0625,38.27539,38.496094,38.726562,38.964844,39.210938,39.458984,39.70703,39.95117,40.183594,40.404297,40.60742,40.789062,40.945312,41.07617,41.177734,41.25,41.29297,41.308594,41.29883,41.26367,41.208984,41.13867,41.054688,40.96289,40.867188,40.773438,40.683594,40.601562,40.529297,40.464844,40.410156,40.36133,40.314453,40.277344,40.253906,40.25,40.26172,40.29297,40.339844,40.398438,40.466797,40.53711,40.609375,40.67578,40.73242,40.77539,40.802734
-1.7014117E38,-1.7014117E38,-1.7014117E38,-1.7014117E38,-1.7014117E38,-1.7014117E38,-1.7014117E38,-1.7014117E38,-1.7014117E38,-1.7014117E38,-1.7014117E38,-1.7014117E38,-1.7014117E38,-1.7014117E38,42.30078,42.333984,42.376953,42.42578,42.478516,42.527344,42.570312,42.603516,42.61914,42.617188,42.589844,42.535156,42.453125,42.341797,42.19922,42.02539,41.82422,41.595703,41.34375,41.072266,40.785156,40.48633,40.179688,39.871094,39.564453,39.26367,38.970703,38.6875,38.41211,38.14258,37.875,37.615234,37.36914,37.14453,36.947266,36.783203,36.660156,36.58008,36.546875,36.564453,36.63086,36.748047,36.91211,37.123047,37.375,37.66211,37.98047,38.320312,38.677734,39.041016,39.402344,39.75586,40.089844,40.398438,40.67383,40.908203,41.09961,41.24414,41.339844,41.39258,41.404297,41.38672,41.351562,41.3125,41.273438,41.23242,41.1875,41.140625,41.091797,41.041016,40.98828,40.935547,40.88086,40.828125,40.777344,40.728516,40.68164,40.63867,40.59961,40.564453,40.535156,40.509766,40.48828,40.470703,40.458984,40.44922,40.44336,40.439453,40.439453,40.439453,40.439453,40.441406,40.44336,40.44336,40.44336,40.44336,40.44922,40.46875,40.51172,40.58008,40.679688,40.808594,40.96289,41.13867,41.33008,41.533203,41.740234,41.945312,42.14258,42.32422,42.484375,42.61914,42.72461,42.79492,42.83203,42.83008,42.789062,42.71289,42.601562,42.45703,42.283203,42.08203,41.86133,41.621094,41.36914,41.109375,40.84375,40.578125,40.310547,40.04492,39.78711,39.539062,39.30664,39.097656,38.91211,38.759766,38.63867,38.554688,38.509766,38.503906,38.53711,38.61133,38.720703,38.865234,39.041016,39.242188,39.46289,39.697266,39.9375,40.18164,40.416016,40.63867,40.841797,41.01953,41.166016,41.279297,41.35742,41.40039,41.410156,41.39453,41.36328,41.32422,41.273438,41.197266,41.089844,40.945312,40.76172,40.539062,40.28125,39.99414,39.68164,39.353516,39.01367,38.67383,38.33789,38.015625,37.714844,37.439453,37.197266,36.992188,36.828125,36.70508,36.628906,36.595703,36.60547,36.658203,36.75,36.875,37.03125,37.21289,37.414062,37.628906,37.853516,38.08203,38.3125,38.546875,38.789062,39.03711,39.291016,39.54883,39.804688,40.058594,40.302734,40.533203,40.746094,40.9375,41.103516,41.24414,41.353516,41.43164,41.48047,41.5,41.490234,41.45508,41.396484,41.31836,41.226562,41.126953,41.021484,40.916016,40.814453,40.722656,40.64258,40.57422,40.51953,40.47461,40.435547,40.402344,40.376953,40.367188,40.378906,40.408203,40.45703,40.523438,40.601562,40.689453,40.78125,40.873047,40.95703,41.03125,41.089844,41.128906
