477.5586,478.34375,479.69922,481.44922,483.1875,484.4961,485.08984,485.25,485.40234,485.97266,487.1797,488.7578,490.41797,491.8789,492.9922,493.9375,494.89844,496.0625,497.58984,499.35156,501.0664,502.45703,503.89062,505.3672,506.0625,505.16406,501.9414,497.0,491.52734,486.71094,482.79688,479.17578,475.7539,472.4375,469.20703,466.10156,463.15234,460.3828,457.91797,455.70703,453.4961,451.03125,448.10547,444.89453,441.7422,438.97266,436.85938,435.16016,433.46094,431.34766,428.6914,425.71875,422.54688,419.28906,415.8711,412.26172,408.66016,405.26562,402.10938,399.09766,396.21484,393.45312,390.7539,388.14844,385.73047,383.60938,382.0039,380.79688,379.57812,377.94922,375.73438,373.16797,370.47266,367.86328,365.34375,362.8164,360.35156,358.01953,355.8047,353.6836,351.69922,349.89844,348.3672,347.0547,345.8125,344.48438,343.03906,341.55078,340.05078,338.58203,337.21094,335.90625,334.51953,332.92188,330.96094,328.7539,326.53516,324.5547,322.90625,321.44922,320.0664,318.64844,317.07422,315.4336,313.92578,312.7422,312.0703,311.76172,311.51172,311.02344,310.19922,309.20703,308.13672,306.03125,304.46094,303.39844,302.8711,302.8711,301.79297,300.6875,299.6914,298.9336,297.27344,298.375,297.54297,296.4414,296.2422,295.76562,293.16016,292.67188,291.20312,290.71875,290.22656,286.22656,285.9453,285.64062,284.0625,283.82812,283.54297,283.46094,283.26953,283.26953,282.5586,280.22266,281.32422,279.15234,278.10547,277.01953,275.91797,274.83594,273.7422,272.67188,271.78516,269.9922,269.71484,270.8164,270.86328,270.76953,270.1836,268.98828,267.95312,266.86328,265.64844,264.34766,263.20703,262.44922,262.35547,262.71094,263.2461,263.32422,262.76562,262.02344,261.39062,260.90625,260.27734,259.5547,258.77344,258.0078,257.03516,255.98828,254.95312,254.14453,253.58594,252.98438,252.33203,251.46484,250.5586,249.6875,248.82422,247.80078,246.25781,244.48438,242.92969,241.53516,240.1836,238.73438,237.10156,235.57812,234.11719,232.72266,231.3086,229.9375,228.59766,227.27734,225.8789,224.40234,222.94922,221.70312,220.64062,219.70312,218.71094,217.72656,216.84766,216.13672,215.58984,215.1836,214.92188,214.79688,214.80469,214.92188,215.15625,215.47266,215.86328,216.28906,216.73828,217.17578,217.58984,217.98047,218.33203,218.6211,218.85547,219.03516,219.14453,219.16797,219.1211,218.97656,218.75,218.41406,217.97656,217.41797,216.73047,215.91016,214.95312,213.86328,212.64844,211.32031,209.89844,208.41406,206.91406,205.46094,204.11719,202.92578,201.8789,200.88281,199.88672,198.89453
480.52344,481.48047,482.61328,483.90625,485.1953,486.3125,487.14062,487.79297,488.4453,489.26172,490.33984,491.5664,492.82422,494.0,494.97266,495.83594,496.78516,498.03125,499.82812,502.0039,504.10156,505.65625,506.9961,508.21094,508.51172,507.10156,503.10156,497.15234,490.7578,485.41797,481.6328,478.5664,475.73047,472.625,469.04297,465.27734,461.57812,458.19922,455.2422,452.5625,450.03906,447.5547,445.08594,442.6875,440.3789,438.17578,436.21875,434.45312,432.60547,430.39453,427.6875,424.65625,421.47266,418.3047,415.15234,411.9375,408.73047,405.60156,402.5703,399.60156,396.6797,393.79297,390.85156,387.89062,385.08203,382.59375,380.65625,379.10938,377.5625,375.61328,373.02734,370.0625,367.05078,364.32422,361.9922,359.8711,357.85547,355.83594,353.72266,351.59375,349.59766,347.8711,346.59375,345.64062,344.71094,343.5039,341.82422,339.8789,337.9297,336.2422,335.01953,334.07422,333.09766,331.78516,329.90625,327.6797,325.4414,323.53906,322.16797,321.10938,320.08203,318.8047,317.0078,314.91016,312.9453,311.54297,311.01953,311.07422,311.23438,311.02344,310.28125,309.27344,308.15625,306.03125,304.47656,303.41797,303.16797,302.10547,301.85547,301.60156,298.78906,298.375,298.375,296.4414,297.54297,296.2578,295.96094,292.5547,292.3086,290.57812,290.33594,290.08984,287.64062,287.39062,285.1836,285.1836,284.17188,283.46094,283.26953,283.26953,283.26953,282.16797,281.45703,280.41016,281.51172,280.8086,278.14844,277.90234,276.0078,275.7461,273.83203,272.07422,271.09375,271.09375,269.71484,270.8164,270.8711,270.78516,270.22656,269.04688,267.95312,266.8125,265.67188,264.52734,263.48828,262.70312,262.5078,262.8086,263.23438,263.20703,262.51953,261.78906,261.20703,260.76953,260.0586,259.1836,258.32812,257.51953,256.67578,255.91016,255.1875,254.4375,253.60938,252.73047,251.83984,250.89844,249.9414,249.01562,248.10156,247.22656,245.82422,244.15625,242.55469,240.97266,239.4336,237.8789,236.34375,234.95703,233.53125,232.13281,230.70703,229.38281,228.05078,226.71094,225.32422,223.85547,222.44531,221.1836,220.09766,219.16016,218.1836,217.23438,216.38281,215.70703,215.22656,214.89844,214.70703,214.64062,214.71484,214.91797,215.20703,215.58203,216.02344,216.47656,216.9375,217.3711,217.78516,218.15625,218.48047,218.7461,218.94922,219.08594,219.14453,219.13281,219.03125,218.83984,218.5586,218.17578,217.67969,217.0625,216.32812,215.47656,214.5,213.40234,212.19922,210.90625,209.54688,208.15625,206.75781,205.40625,204.125,202.94922,201.86328,200.85547,199.875,198.89453
483.17188,484.25,485.23438,486.21875,487.20312,488.1875,489.17188,490.15625,491.14062,492.125,493.10938,494.09375,495.07812,496.0625,496.95312,497.78516,498.73828,500.0,501.875,504.1797,506.36328,507.8711,508.98047,509.83984,509.71875,507.8711,503.35156,496.80078,489.8789,484.25,480.5586,477.85156,475.39062,472.4375,468.6875,464.5664,460.4453,456.6914,453.3711,450.29297,447.46484,444.8789,442.6328,440.6953,438.8828,437.0078,435.1289,433.3164,431.3789,429.1328,426.45703,423.47266,420.3672,417.3203,414.3672,411.41406,408.46094,405.51172,402.5586,399.60547,396.65234,393.69922,390.65234,387.54688,384.5625,381.88672,379.73438,377.94922,376.16797,374.01562,371.2461,368.10938,364.97266,362.20312,359.95703,358.01953,356.20312,354.32812,352.26953,350.14453,348.14453,346.45312,345.28516,344.48438,343.6875,342.51953,340.73438,338.58203,336.42578,334.64453,333.47656,332.67578,331.875,330.70703,328.92188,326.76953,324.6172,322.83203,321.66406,320.86328,320.0664,318.89453,317.01953,314.71094,312.52734,311.02344,310.5586,310.77734,311.11328,311.02344,310.3125,309.30078,308.16016,306.03125,304.48438,303.9922,303.5,302.46875,301.97656,301.48438,298.82812,298.58203,297.54297,297.54297,295.15625,296.2578,293.9922,293.01172,292.03906,291.0586,290.0586,290.0586,287.1211,287.1211,286.22266,284.08203,283.0703,282.35938,282.16797,282.16797,282.16797,283.26953,282.5586,281.51172,281.51172,280.96484,279.84375,277.7578,276.16797,274.57422,273.02734,271.58203,271.30078,270.8125,269.71094,270.8125,270.86328,270.78906,270.27344,269.10547,267.9297,266.77734,265.6836,264.6797,263.6836,262.85938,262.66016,262.91016,263.27344,263.0586,262.21094,261.47656,260.94922,260.4375,259.6289,258.6836,257.72656,256.8789,256.08594,255.51562,255.03906,254.3711,253.53516,252.57031,251.58594,250.5664,249.51562,248.55469,247.64453,246.58203,245.15234,243.67188,242.26562,240.69922,239.00781,237.39844,235.88672,234.5586,233.15625,231.70312,230.27344,228.96094,227.625,226.17969,224.71094,223.28516,221.96484,220.73438,219.6289,218.625,217.67188,216.76953,215.94922,215.32422,214.91406,214.65234,214.52734,214.54688,214.69922,214.96094,215.3164,215.74219,216.20703,216.70312,217.14844,217.58594,217.98438,218.33984,218.63281,218.86328,219.02734,219.11719,219.13672,219.07422,218.92188,218.67969,218.34766,217.89844,217.34375,216.67969,215.89844,215.01562,214.01953,212.92188,211.73438,210.47266,209.17188,207.85938,206.57031,205.3125,204.10938,202.95703,201.86328,200.85547,199.86719,198.89453
485.375,486.4961,487.4375,488.32422,489.21484,490.15625,491.1836,492.26172,493.34375,494.3711,495.3164,496.21094,497.10156,498.03125,498.94922,499.85156,500.85156,502.0586,503.7539,505.78906,507.64453,508.79297,509.46484,509.8125,509.20703,507.01172,502.3125,495.6953,488.77734,483.17188,479.53516,476.9297,474.58594,471.73047,468.08203,464.07812,460.02344,456.23047,452.6914,449.27344,446.08594,443.25,440.89062,438.91797,437.10156,435.22266,433.3164,431.47266,429.53516,427.34766,424.82812,422.0703,419.19922,416.33594,413.4961,410.6211,407.71875,404.80078,401.85547,398.8828,395.91406,392.9922,390.0586,387.1172,384.29297,381.70312,379.51562,377.6211,375.73047,373.55078,370.90234,367.97656,365.03516,362.35547,360.03125,357.91016,355.89062,353.8672,351.7578,349.6328,347.6328,345.90234,344.60547,343.625,342.67188,341.4414,339.76172,337.8164,335.8711,334.1836,332.91406,331.89453,330.8828,329.6289,327.95703,326.03125,324.13672,322.5547,321.5078,320.78906,320.0625,318.98828,317.2578,315.1289,313.08984,311.63672,311.08594,311.1172,311.25,311.02344,310.26953,309.26172,308.14844,306.03125,305.29297,304.5547,303.8164,303.07812,301.21875,299.78516,299.29297,297.95703,296.73438,296.2578,296.2578,293.89453,292.89062,291.91016,290.9375,289.95703,288.95703,290.0586,288.0,286.01953,285.1211,286.22266,284.17188,283.46094,283.26953,283.26953,283.26953,283.26953,282.57422,282.3086,281.23438,280.96484,279.9336,278.3672,275.72266,274.27734,272.6289,271.98438,270.9414,270.6797,269.57812,270.6797,270.75,270.75,270.34375,269.17188,267.91797,266.73828,265.67578,264.64453,263.60156,262.8164,262.66016,263.0586,263.32812,263.0039,262.09766,261.27734,260.53906,259.90234,259.0625,258.2578,257.42188,256.53516,255.65625,255.04297,254.60156,253.88672,253.10547,252.22656,251.3164,250.15234,249.04688,248.03906,247.03516,245.80078,244.39844,243.15234,242.10156,240.71875,238.99219,237.28516,235.66406,234.23438,232.8125,231.3086,229.84766,228.50781,227.13281,225.67578,224.16797,222.76172,221.53125,220.34375,219.17578,218.10156,217.14453,216.27344,215.55078,215.0,214.65234,214.46094,214.41016,214.50781,214.73828,215.07031,215.47656,215.94922,216.45312,216.92578,217.38672,217.8086,218.1875,218.50781,218.76953,218.96484,219.08984,219.13672,219.10547,219.0,218.79688,218.4961,218.09766,217.59375,216.99219,216.26953,215.44922,214.52344,213.5039,212.39844,211.21875,209.98047,208.73438,207.5,206.3125,205.16797,204.04297,202.94531,201.88281,200.8711,199.89453,198.92188
487.3164,488.4336,489.3789,490.27734,491.1797,492.125,493.14844,494.21484,495.28516,496.3086,497.2539,498.15234,499.05078,500.0,500.9961,502.02734,503.08984,504.1797,505.51562,507.02734,508.28125,508.85547,508.92188,508.60938,507.4375,504.91797,500.2578,493.9375,487.38672,482.03516,478.46094,475.83594,473.48438,470.71484,467.35547,463.76562,460.08203,456.4453,452.7578,448.98438,445.3789,442.17188,439.5039,437.22266,435.13672,433.0703,431.0586,429.1797,427.27344,425.1953,422.91406,420.5039,417.98047,415.35156,412.58984,409.6914,406.73828,403.78906,400.8125,397.78906,394.8125,391.97656,389.28516,386.70312,384.23047,381.88672,379.7578,377.8125,375.8711,373.76953,371.4297,368.95312,366.42578,363.92578,361.42578,358.89453,356.42188,354.08203,351.875,349.76172,347.77734,345.96094,344.3789,342.9961,341.67578,340.3047,338.84375,337.3672,335.8789,334.39844,332.92188,331.4453,329.96875,328.4922,326.95703,325.38672,323.89062,322.58594,321.6172,320.8789,320.13672,319.14062,317.6953,315.97266,314.29688,312.98828,312.25,311.8672,311.5547,311.02344,310.17578,309.17578,308.11328,307.08594,306.10156,305.1172,304.1328,303.14844,301.21875,300.48828,298.875,298.375,296.73438,296.47266,294.9961,294.9961,293.9922,293.01172,292.03906,291.0586,290.0586,287.89844,286.89844,288.0,286.22266,286.22266,286.0703,283.89062,283.78906,283.5547,283.45312,283.29688,283.07812,281.48828,280.9375,280.42188,279.9297,278.40625,276.35156,274.22266,273.29688,271.6797,270.8828,270.55078,269.44922,270.55078,270.76953,270.82812,270.42188,269.33594,267.97656,266.83594,265.78125,264.66016,263.58594,262.8164,262.7461,263.1328,263.35938,262.96094,262.03906,261.08203,260.14453,259.3086,258.51562,257.9297,257.35547,256.46875,255.47266,254.71484,254.13281,253.33203,252.4375,251.51953,250.60156,249.44922,248.26953,247.3164,246.42188,245.22266,244.0,242.97656,242.08594,240.78516,239.02734,237.1914,235.38672,233.78125,232.33984,230.8164,229.36328,227.95312,226.59766,225.21484,223.79688,222.41797,221.125,219.89453,218.66016,217.54688,216.60938,215.8125,215.19531,214.72266,214.4336,214.3164,214.35156,214.52734,214.82031,215.21875,215.67969,216.1875,216.6914,217.17578,217.6289,218.02734,218.375,218.66406,218.89062,219.05469,219.14062,219.14062,219.0586,218.89453,218.63672,218.28516,217.83984,217.27734,216.61328,215.84375,214.97266,214.01172,212.96484,211.84375,210.67188,209.45703,208.2539,207.10547,206.02734,204.98047,203.9336,202.88672,201.85156,200.85938,199.89844,198.92188
489.15625,490.2461,491.21875,492.17188,493.1211,494.09375,495.08984,496.10547,497.125,498.1211,499.08594,500.03125,500.98438,501.96484,503.03906,504.17188,505.2578,506.1797,507.07422,507.9453,508.4961,508.42578,507.84766,506.85156,505.125,502.33594,497.84766,492.01172,486.01172,481.01953,477.4961,474.76562,472.3047,469.57812,466.53516,463.42188,460.1914,456.78516,453.01953,448.98438,445.01953,441.46484,438.4297,435.72656,433.2539,430.91406,428.77734,426.86328,425.0039,423.04297,421.0,418.9453,416.76953,414.3672,411.65625,408.70312,405.65625,402.64844,399.6328,396.5586,393.57812,390.83984,388.41406,386.21484,384.13672,382.07422,380.03516,378.0703,376.1172,374.10547,372.08594,370.0625,367.9414,365.6172,362.9375,359.9961,357.0703,354.42188,352.14062,350.08203,348.15625,346.26953,344.38672,342.5547,340.83594,339.28906,338.04297,337.03125,336.0078,334.73438,333.05078,331.1172,329.1797,327.47656,326.08984,324.8789,323.78516,322.7422,321.79688,320.96094,320.125,319.17188,318.01953,316.7422,315.47266,314.34375,313.42188,312.625,311.85938,311.02344,310.08203,309.08984,308.08203,307.08594,306.10156,305.1172,304.1328,303.14844,302.16406,300.27344,299.53516,297.73438,296.60156,295.54297,295.29297,294.28906,294.03906,293.79297,292.08594,290.35547,289.0,289.0,288.0,288.0,287.73438,286.3789,286.36328,284.98047,284.6836,284.3047,283.77734,283.32422,282.84375,282.3164,281.04688,279.84766,279.1211,278.3828,276.30078,275.1797,273.02734,271.61328,270.64453,270.40625,269.3047,270.40625,270.5703,270.875,269.9922,269.08203,268.15625,267.01172,265.875,264.6211,263.55078,262.8711,262.83594,263.07812,263.1289,262.75,261.84766,260.6875,259.6172,258.8086,258.1836,257.78125,257.2578,256.3711,255.32031,254.54297,253.83594,252.89844,251.71484,250.54688,249.48047,248.42578,247.47266,246.69922,245.96094,245.0664,244.05469,243.07812,241.97656,240.51953,238.73828,236.8789,235.02344,233.33203,231.8125,230.35547,228.9375,227.47656,226.10547,224.76562,223.44531,222.03516,220.6914,219.40625,218.16016,217.04688,216.13281,215.42188,214.88672,214.48047,214.26562,214.20703,214.32422,214.55469,214.9375,215.39453,215.90234,216.42578,216.9375,217.41797,217.85938,218.24219,218.5625,218.8164,219.0039,219.11719,219.16016,219.11328,218.98828,218.77344,218.46484,218.0586,217.55078,216.9414,216.22266,215.40625,214.49219,213.49219,212.42188,211.29297,210.125,208.9414,207.79688,206.73047,205.73828,204.78906,203.8125,202.8125,201.80469,200.83984,199.88672,198.91797
491.04688,492.125,493.10938,494.09375,495.07812,496.0625,497.04688,498.03125,499.01562,500.0,500.98047,501.96484,502.94922,503.9336,505.01172,506.14844,507.16406,507.8711,508.33203,508.60938,508.51953,507.8711,506.73438,505.16406,502.98047,500.0,495.72266,490.40234,484.95703,480.3125,476.8086,473.91406,471.26953,468.5039,465.64062,462.84375,459.92188,456.6914,452.9375,448.8164,444.6953,440.9414,437.6211,434.54688,431.71484,429.1328,426.88672,424.94922,423.1328,421.2578,419.3828,417.5664,415.6289,413.3828,410.70703,407.72266,404.6172,401.57422,398.52734,395.42188,392.4375,389.76172,387.51562,385.57812,383.76562,381.88672,379.91797,377.94922,375.98047,374.01562,372.13672,370.32422,368.38672,366.14062,363.3711,360.23438,357.09766,354.32812,352.08203,350.14453,348.33203,346.45312,344.39453,342.27344,340.27344,338.58203,337.41016,336.61328,335.8125,334.64453,332.85938,330.70703,328.5547,326.76953,325.5078,324.5547,323.72656,322.83203,321.84766,320.86328,319.8789,318.89453,317.91016,316.92578,315.9414,314.95703,313.97266,312.98828,312.0078,311.02344,310.03906,309.0547,308.0703,307.08594,306.10156,305.1172,304.1328,303.14844,302.16406,301.1797,299.21094,298.15625,296.60938,296.1172,295.125,294.6328,294.14062,293.64844,291.1875,289.58203,289.3125,289.02734,288.02344,287.84766,287.80078,286.8086,286.90234,286.8086,286.5586,285.10156,284.1797,283.34375,282.5703,281.79688,281.03125,279.26562,278.27734,277.29297,276.21875,275.0664,272.9375,271.4375,270.40234,270.26172,269.16016,270.26172,270.3125,269.89844,269.91406,268.76953,267.85547,267.01953,265.77734,264.42188,263.40625,262.84375,262.71875,262.70312,262.59375,262.27344,261.42578,260.17578,259.0586,258.4414,258.0625,257.64453,257.09375,256.21094,255.1211,254.21875,253.49219,252.53906,251.26172,249.86719,248.69922,247.77344,247.0586,246.46875,245.8164,245.10156,244.1836,243.01953,241.58984,239.9336,238.26172,236.54688,234.73828,233.0,231.45703,230.03906,228.57812,227.04688,225.59766,224.23438,222.91016,221.51172,220.19531,218.95312,217.72266,216.61328,215.72656,215.08984,214.63672,214.27734,214.10547,214.125,214.3164,214.64844,215.08984,215.60547,216.14453,216.67578,217.1914,217.65234,218.07422,218.42969,218.71875,218.9375,219.08594,219.16016,219.16016,219.07031,218.89453,218.6289,218.26953,217.8086,217.2461,216.58984,215.82422,214.96484,214.01562,212.99219,211.90625,210.78125,209.6289,208.48438,207.39453,206.40234,205.5,204.61328,203.6914,202.73438,201.76562,200.8125,199.8711,198.89844
493.02344,494.09375,495.0547,496.0039,496.95703,497.9375,498.95312,500.0,501.04297,502.0586,503.05078,504.03125,504.98438,505.90234,506.89844,507.9336,508.78516,509.22656,509.2578,508.98047,508.3086,507.16406,505.5625,503.53125,501.0078,497.9375,493.98828,489.29688,484.4961,480.22266,476.66406,473.48438,470.4922,467.51953,464.63672,461.91016,459.09766,455.98438,452.3828,448.46094,444.4922,440.7578,437.23438,433.8086,430.61328,427.77734,425.4453,423.5039,421.73438,419.90625,418.08594,416.35938,414.5039,412.3086,409.6328,406.6172,403.47266,400.40234,397.34766,394.23047,391.2461,388.59375,386.40234,384.54297,382.8086,380.9961,379.07812,377.16016,375.21484,373.21484,371.20703,369.1875,367.0625,364.72656,362.0,358.98828,356.02344,353.4375,351.41406,349.75,348.1797,346.45312,344.41406,342.22266,340.10938,338.3047,336.9961,336.02344,335.07422,333.84375,332.1211,330.1172,328.14062,326.4922,325.34766,324.5039,323.7422,322.83203,321.6797,320.41406,319.14844,318.0039,317.01562,316.125,315.28125,314.4375,313.60547,312.8047,311.98828,311.11328,310.15234,309.13672,308.10156,307.08594,306.09375,305.10938,304.1289,303.14844,302.16406,301.1797,300.1953,298.15625,297.41797,296.4297,295.6914,294.95312,294.21484,292.4961,290.66406,290.16797,289.6172,288.52734,288.0039,287.65234,287.59766,287.75,287.40625,287.3047,286.73828,285.8047,284.55078,283.3672,282.3203,281.30078,280.27734,279.25,278.22266,277.22656,276.14062,274.98047,272.8789,271.26953,270.41016,270.10156,269.0,270.10156,269.5625,269.72266,268.59375,267.8672,267.45703,266.83203,265.80078,264.2539,263.21875,262.59766,262.23438,261.84375,261.64453,261.42188,260.73438,259.65234,258.80078,258.48828,258.20312,257.625,256.8164,255.8164,254.75,253.82031,253.05078,252.17969,250.9961,249.64453,248.52734,247.76172,247.11719,246.4961,245.8125,245.1211,244.14844,242.76172,241.0625,239.41406,237.875,236.35547,234.60156,232.82812,231.25781,229.82031,228.21484,226.53516,225.02344,222.04297,221.05469,220.04688,219.11328,218.24219,217.07031,216.22656,215.57422,215.15625,214.875,214.14062,214.00781,214.08594,214.35938,214.77344,215.28125,215.83203,216.39062,216.92578,217.42188,217.86719,218.26172,218.59766,218.85938,219.04297,219.15234,219.1875,219.13672,219.0039,218.78125,218.46875,218.0586,217.54688,216.9414,216.23438,215.42578,214.53125,213.55078,212.51172,211.42969,210.32031,209.19922,208.10156,207.07031,206.14062,205.28906,204.46484,203.58984,202.67578,201.72656,200.79688,199.86328,198.89844
495.0,496.0625,496.98438,497.875,498.78125,499.7539,500.82422,501.96484,503.10938,504.1797,505.1836,506.14844,507.0547,507.8711,508.73047,509.59375,510.21484,510.33203,509.89844,509.03906,507.78516,506.14844,504.11328,501.67578,498.89062,495.8164,492.3164,488.41797,484.40234,480.5586,476.91016,473.3164,469.83984,466.53516,463.52734,460.75,457.97656,454.96875,451.64062,448.125,444.52344,440.9414,437.2422,433.42188,429.79688,426.67188,424.2461,422.3203,420.59766,418.79688,416.97656,415.2461,413.3828,411.16797,408.46094,405.40234,402.21484,399.11328,396.04297,392.9297,389.95312,387.30078,385.10156,383.22656,381.48047,379.67188,377.8164,375.9961,374.10938,372.04688,369.7461,367.27734,364.73438,362.20312,359.59375,356.89844,354.33203,352.11328,350.4453,349.16016,347.9375,346.45312,344.53906,342.39453,340.25,338.33594,336.7578,335.3828,334.0664,332.67578,331.11328,329.47656,327.89844,326.52344,325.48438,324.6797,323.8711,322.83203,321.40625,319.7422,318.08594,316.6797,315.59375,314.6953,313.9297,313.23438,312.6914,312.29688,311.8828,311.26953,310.3711,309.30078,308.16406,307.08594,306.08203,305.10156,304.125,303.14844,302.16406,301.1797,300.1953,299.21094,298.22656,297.2422,296.2578,295.27344,294.29688,292.23828,291.5039,290.75,289.64844,288.72656,287.90625,287.36328,287.29297,287.54688,287.8047,287.63672,286.89453,285.78125,284.53906,283.35547,282.3047,281.28906,280.25,279.22266,278.1914,277.1836,276.10547,274.9336,272.78516,271.27344,270.40625,269.8164,268.71484,268.46094,269.5625,268.25,268.33984,267.1797,266.96484,266.53125,265.5,264.4453,263.02734,262.1914,261.51172,260.83984,260.4375,260.28906,259.89062,259.26172,258.86328,258.64844,258.2539,257.4453,256.41797,255.44922,254.4414,253.4961,252.6914,251.84766,250.78125,249.6211,248.65625,247.95703,247.26562,246.51172,245.67969,244.86719,243.83594,242.38672,240.65625,239.1289,237.73828,236.30078,234.50781,232.71094,231.08984,227.74219,226.41016,225.0586,223.92188,222.96484,219.57422,218.92969,218.3164,217.73438,216.61328,216.03906,215.63672,215.38281,214.72656,214.05078,214.0,214.13672,214.47266,214.94531,215.48828,216.0664,216.6211,217.15625,217.63281,218.0664,218.4414,218.7461,218.97266,219.1211,219.19531,219.1875,219.09766,218.92188,218.64844,218.28906,217.82812,217.26953,216.61719,215.86328,215.02734,214.10156,213.10156,212.0586,210.98047,209.89844,208.8125,207.76562,206.78516,205.89844,205.09375,204.3164,203.48828,202.60938,201.6875,200.76562,199.85156,198.90625
496.97266,498.03125,498.9453,499.82422,500.72266,501.6914,502.77344,503.9336,505.09766,506.1797,507.20703,508.20703,509.10547,509.83984,510.51953,511.1328,511.4414,511.1953,510.29688,508.88672,507.08594,505.01172,502.60938,499.84375,496.86328,493.8164,490.73828,487.54688,484.23047,480.77344,477.03906,473.07812,469.16016,465.55078,462.39453,459.53125,456.7461,453.83203,450.78516,447.70312,444.51172,441.1289,437.3086,433.16797,429.17578,425.8086,423.3164,421.40234,419.72266,417.9375,416.08594,414.3086,412.39844,410.15625,407.4297,404.36328,401.16797,398.0664,395.0,391.89062,388.91797,386.2539,384.02344,382.10156,380.3125,378.47266,376.64453,374.88672,373.02344,370.875,368.27344,365.35156,362.39453,359.6797,357.21875,354.875,352.7461,350.91406,349.57812,348.6328,347.71484,346.45312,344.6875,342.6289,340.4922,338.48828,336.625,334.80078,333.07812,331.5078,330.125,328.89453,327.76562,326.67578,325.73047,324.91406,324.01562,322.83203,321.15234,319.14062,317.13672,315.48047,314.2539,313.27734,312.5078,311.91406,311.63672,311.64453,311.63672,311.29688,310.4922,309.39844,308.20312,307.08594,306.08203,305.09766,304.125,303.14844,302.16406,301.1797,300.1953,299.21094,298.22656,297.2422,296.2578,295.27344,294.29688,293.32422,292.33984,291.33594,290.1953,288.96094,287.85938,287.1211,286.9961,287.29688,287.58594,287.46484,286.75,285.6875,284.47656,283.33594,282.30078,281.2578,280.21875,279.1797,278.15234,277.10938,276.04688,274.92578,272.7422,271.16406,270.21094,269.8164,269.8164,269.5625,267.14844,268.25,266.83203,267.0,266.45312,265.92188,265.375,264.44922,263.1289,261.92578,260.98047,260.01953,259.38672,259.22656,259.1289,259.05078,258.9453,258.65625,257.91016,256.92578,255.9414,255.08984,254.17578,253.27734,252.44922,251.57422,250.51562,249.5,248.72656,248.13672,247.41016,246.47656,245.48828,244.55078,243.33594,241.82812,240.23828,238.88672,237.66797,236.25,234.40625,230.74219,229.45703,227.84766,224.85156,223.96094,223.21875,222.58594,219.42969,218.0039,217.6875,216.63672,216.32422,216.05469,215.8711,215.30078,214.66406,214.02734,214.07031,214.26562,214.64062,215.13281,215.6875,216.27734,216.83203,217.36328,217.83203,218.2461,218.58984,218.8789,219.07031,219.17969,219.21484,219.16406,219.02734,218.80469,218.4961,218.08984,217.58594,216.98438,216.28516,215.4961,214.625,213.67578,212.66797,211.625,210.5664,209.5039,208.45703,207.45312,206.51172,205.66797,204.90625,204.16406,203.375,202.52734,201.63281,200.72656,199.82422,198.89453
498.92188,500.0,500.98047,501.96484,502.94922,503.9336,504.91797,505.90234,506.88672,507.8711,508.94922,510.08594,511.10156,511.8086,512.26953,512.5469,512.4531,511.8086,510.48828,508.60938,506.36328,503.9336,501.2578,498.27734,495.16797,492.125,489.26172,486.46484,483.54297,480.3125,476.5625,472.4375,468.3164,464.5664,461.33594,458.41406,455.61328,452.7539,449.89453,447.09375,444.17188,440.9414,437.09766,432.82422,428.67188,425.1953,422.67188,420.76562,419.10547,417.3203,415.4453,413.6289,411.6914,409.4453,406.76953,403.78906,400.6797,397.63672,394.58984,391.48438,388.5,385.82422,383.57812,381.64062,379.82812,377.94922,376.07422,374.26172,372.3203,370.07812,367.3086,364.17188,361.03516,358.26562,355.9297,353.83594,351.9922,350.39062,349.22266,348.42188,347.625,346.45312,344.76172,342.76562,340.64062,338.58203,336.51953,334.39844,332.39844,330.70703,329.4453,328.4922,327.66016,326.76953,325.8789,325.04688,324.09375,322.83203,321.04688,318.89453,316.7422,314.95703,313.60547,312.5,311.63672,311.02344,310.83594,311.02344,311.20703,311.02344,310.3125,309.30078,308.16016,307.08594,306.10156,305.1172,304.1328,303.14844,302.16406,301.1797,300.1953,299.21094,298.22656,297.2422,296.2578,295.27344,294.28906,293.3047,292.3203,291.33594,290.26172,289.1211,288.10547,287.39844,287.21484,287.39844,287.5703,287.3711,286.64062,285.60156,284.42578,283.3086,282.27344,281.23047,280.1836,279.14062,278.09766,277.0586,276.02344,274.94922,272.80078,271.21484,270.23047,269.96875,269.5078,268.25,268.25,265.73047,266.83203,266.1914,266.32422,265.48438,264.41797,263.85547,262.64453,261.8203,260.64453,259.53125,258.7461,258.51562,258.6289,258.8086,258.77734,258.21484,257.28906,256.3164,255.5,254.75,253.84766,253.01172,252.20703,251.38281,250.35547,249.375,248.6914,248.16406,247.41406,246.40625,245.35156,244.17969,242.82812,241.34766,239.89453,238.66406,237.47656,236.04688,232.46094,230.60156,227.97266,227.1211,225.45703,223.08203,222.72266,222.38281,219.79688,217.90234,217.23828,217.23828,216.23828,216.23828,215.83594,215.27344,214.66797,214.11328,214.21094,214.46875,214.85156,215.32422,215.8789,216.46484,217.05078,217.5664,218.02344,218.41016,218.72656,218.97266,219.13672,219.22266,219.21094,219.125,218.94531,218.67969,218.32031,217.86719,217.32031,216.67188,215.9336,215.10938,214.21875,213.2539,212.24219,211.20312,210.16016,209.1289,208.10938,207.13672,206.23828,205.42969,204.69922,204.0,203.24219,202.42188,201.54688,200.66016,199.76172,198.84766
500.82422,501.96484,503.17578,504.4922,505.7539,506.79688,507.45312,507.85547,508.26562,508.94922,510.1797,511.7539,513.1992,514.0547,514.25,514.0117,513.3281,512.1797,510.45703,508.20312,505.6328,502.94922,500.1328,497.08984,493.95703,490.86328,487.89844,484.98047,481.96094,478.71484,475.0625,471.125,467.19922,463.58203,460.38672,457.44922,454.625,451.76953,448.95312,446.21484,443.3711,440.23438,436.51562,432.39453,428.38672,425.01172,422.52344,420.61328,418.9336,417.13672,415.2422,413.39453,411.45312,409.26172,406.75,404.0078,401.14062,398.25,395.2422,392.09766,389.0547,386.34766,384.1328,382.2539,380.47656,378.5664,376.52344,374.44922,372.26562,369.89062,367.16797,364.1875,361.23438,358.60547,356.35156,354.33203,352.52734,350.91406,349.65625,348.70312,347.7422,346.45312,344.71484,342.70312,340.57422,338.48828,336.35938,334.14453,332.0625,330.33594,329.10938,328.23828,327.5,326.67578,325.8125,324.98438,324.04297,322.83203,321.1836,319.21875,317.22266,315.48047,313.9961,312.64062,311.4961,310.65234,310.27734,310.28125,310.33594,310.1289,309.5664,308.8203,307.96875,307.08594,306.16406,305.17188,304.15234,303.14844,302.16406,301.1797,300.1953,299.21094,298.22656,297.2422,296.2578,295.27344,294.26953,293.2539,292.26562,291.33594,290.4414,289.5703,288.80078,288.19922,287.91016,287.83984,287.7461,287.35156,286.57422,285.53906,284.3789,283.27344,282.2461,281.20703,280.16797,279.10938,278.0586,277.01562,276.0078,274.96875,272.8164,271.22266,270.64453,269.95312,268.48438,268.1914,266.83203,266.83203,265.08984,266.1914,265.28125,265.2539,263.85156,262.71484,262.26953,261.41016,260.5703,259.6914,258.78125,258.5625,258.66797,258.78906,258.35938,257.69922,256.71094,255.84766,255.17578,254.4414,253.53125,252.6914,251.96484,251.26562,250.26953,249.25781,248.5,247.96484,247.21094,246.22266,245.1289,243.85547,242.41406,241.03906,239.76562,238.58594,237.27344,233.95703,232.6211,229.61719,228.77734,226.1875,225.75,224.1836,222.30469,222.30469,220.74219,219.3086,218.20703,216.13672,215.13672,216.23828,215.85156,215.30469,214.73828,214.23047,214.35156,214.63672,215.03906,215.53906,216.09375,216.6914,217.26172,217.76172,218.1836,218.55469,218.84766,219.0625,219.1875,219.23438,219.19531,219.0664,218.84766,218.53516,218.1289,217.625,217.03125,216.34766,215.57422,214.72656,213.80469,212.83203,211.8164,210.78906,209.76562,208.7461,207.76172,206.8164,205.94922,205.17969,204.49219,203.82812,203.09766,202.30469,201.45312,200.57422,199.6914,198.79297
502.6953,503.9336,505.47266,507.28906,508.96484,510.08594,510.2578,509.79297,509.35547,509.59375,511.0586,513.26953,515.3672,516.4844,516.3594,515.46875,514.03906,512.3008,510.1914,507.625,504.8164,501.96484,499.10938,496.13672,493.0664,489.91016,486.63672,483.25,479.8125,476.375,472.90234,469.3789,465.91016,462.59766,459.5,456.55078,453.67578,450.78516,447.9336,445.14062,442.27734,439.21875,435.7422,431.97656,428.32812,425.1953,422.79297,420.875,419.14453,417.3203,415.39844,413.5078,411.5547,409.4453,407.17578,404.78516,402.26562,399.60547,396.64062,393.4375,390.30078,387.54688,385.3789,383.59375,381.8789,379.91797,377.6211,375.15234,372.60547,370.07812,367.51953,364.91016,362.35938,359.98828,357.8125,355.77344,353.875,352.11328,350.60156,349.30078,347.9922,346.45312,344.59766,342.54688,340.42188,338.33594,336.19922,333.9961,331.9336,330.21484,328.98047,328.09375,327.34375,326.52344,325.66016,324.83203,323.9297,322.83203,321.46875,319.91016,318.27734,316.6797,315.03906,313.32812,311.7578,310.53125,309.78906,309.39062,309.1328,308.8086,308.4297,308.08594,307.67188,307.08594,306.2578,305.2539,304.1836,303.14844,302.16406,301.1797,300.1953,299.21094,298.22656,297.2422,296.2578,295.27344,294.2422,293.1836,292.1836,291.33594,290.70703,290.23047,289.8125,289.3672,288.92188,288.48828,288.0,287.35156,286.48438,285.4453,284.33203,283.2461,282.21875,281.21094,280.16406,279.09766,278.01172,276.96875,275.92188,274.84766,272.7461,271.8672,270.91797,269.22656,268.64062,267.09766,266.85547,266.1914,266.1914,264.1797,265.28125,263.6914,263.5703,262.15625,261.53516,261.21094,260.625,259.4453,259.02734,258.85547,258.875,258.53906,257.95703,257.35938,256.5039,255.70703,254.94531,254.17188,253.24219,252.41797,251.78516,251.1289,250.11719,249.0039,248.14453,247.57812,246.89453,245.94922,244.83203,243.60156,242.26172,240.94922,239.80078,238.61719,235.5,233.75,231.14453,229.48828,227.9336,227.52734,225.34375,225.34375,223.80469,245.20312,219.64062,218.20703,217.10547,218.20703,216.23828,216.23828,215.89062,215.36719,214.82422,214.33984,214.48047,214.80078,215.24219,215.76562,216.34375,216.92969,217.47656,217.9414,218.34766,218.67969,218.94922,219.13281,219.23047,219.23828,219.16797,218.99219,218.73047,218.3711,217.91016,217.36328,216.72656,215.9961,215.19922,214.32031,213.38672,212.41016,211.39844,210.375,209.36719,208.3711,207.39844,206.47656,205.64453,204.91797,204.26953,203.64062,202.9375,202.16406,201.32031,200.46094,199.60938,198.74219
504.58203,505.90234,507.7422,510.0078,512.0586,513.2539,512.9922,511.7578,510.54688,510.36328,511.97266,514.6719,517.2617,518.5469,518.08984,516.5742,514.4492,512.1797,509.73438,506.92578,503.9453,500.98047,498.1289,495.26953,492.29297,489.07812,485.47656,481.58984,477.6875,474.03906,470.73438,467.625,464.61328,461.61328,458.61328,455.66406,452.73438,449.80078,446.88672,443.9961,441.07812,438.08203,434.86328,431.4922,428.23828,425.3789,423.0703,421.14062,419.35938,417.5039,415.5547,413.6172,411.65625,409.6328,407.59766,405.5586,403.38672,400.95703,398.0703,394.84766,391.65625,388.8711,386.73438,385.0039,383.3086,381.27344,378.70703,375.83984,372.9375,370.26172,367.89453,365.6953,363.58594,361.4961,359.40625,357.35547,355.35938,353.4375,351.64453,349.95312,348.2578,346.45312,344.4961,342.4414,340.35547,338.3047,336.20312,334.05078,332.03516,330.33594,329.08203,328.14453,327.34375,326.4922,325.59375,324.72266,323.82422,322.83203,321.76562,320.64844,319.41406,318.0039,316.2422,314.21484,312.2461,310.65234,309.53125,308.70312,308.08984,307.60938,307.3789,307.40234,307.39453,307.08594,306.33984,305.32812,304.21094,303.14844,302.16406,301.1797,300.1953,299.21094,298.22656,297.2422,296.2578,295.27344,294.21484,293.10938,292.10156,291.33594,290.97266,290.88672,290.82812,290.53516,289.92188,289.1289,288.2578,287.33203,286.3828,285.34375,284.27344,283.21484,282.1953,281.1875,280.17188,279.08984,277.96484,276.8672,275.77344,274.66016,273.53516,272.35938,270.4297,269.53906,267.84375,267.35156,266.36328,266.1328,265.28125,265.28125,262.58984,263.6914,262.0,261.15625,261.1211,261.05078,260.69922,260.4297,259.3203,259.21094,258.79688,257.6914,257.5039,257.1797,256.67188,256.0625,254.85547,253.98047,253.10156,252.25,251.6289,250.94531,249.79297,248.53516,247.61719,247.08203,246.51953,245.6289,244.52734,243.36328,242.19531,241.0,239.8789,237.05469,235.4414,232.8125,231.85156,229.48438,229.14453,227.1289,227.1289,224.24219,222.70312,223.80469,220.74219,219.3086,218.20703,218.20703,217.77344,216.09375,215.9375,215.4375,214.92188,214.48828,214.67578,215.03125,215.49219,216.02734,216.60938,217.17188,217.6836,218.11328,218.49219,218.80469,219.04297,219.1914,219.25781,219.23438,219.11328,218.90625,218.58984,218.1875,217.67969,217.08203,216.40234,215.63672,214.80078,213.90625,212.96094,211.97266,210.96094,209.94922,208.95312,207.97266,207.02344,206.125,205.3164,204.61328,204.0,203.39453,202.71094,201.94531,201.11719,200.26953,199.4414,198.59766
506.51953,507.8711,509.83984,512.3008,514.5156,515.7461,515.3164,513.77734,512.2383,511.8086,513.3164,515.9922,518.5469,519.6836,518.91406,516.97656,514.4219,511.8086,509.1328,506.14844,503.04297,500.0,497.13672,494.33984,491.41797,488.1875,484.4336,480.3125,476.1914,472.4375,469.21094,466.28906,463.48828,460.6289,457.67578,454.72266,451.76953,448.8164,445.86328,442.91016,439.95703,437.0078,433.96094,430.85547,427.8711,425.1953,422.94922,421.01172,419.1953,417.3203,415.35156,413.3828,411.41406,409.4453,407.5703,405.7578,403.8164,401.57422,398.8047,395.66797,392.53125,389.76172,387.60938,385.82422,384.03906,381.88672,379.1211,375.98047,372.84375,370.07812,367.83203,365.89453,364.07812,362.20312,360.23438,358.26562,356.29688,354.32812,352.35938,350.39062,348.42188,346.45312,344.48438,342.51953,340.55078,338.58203,336.51953,334.39844,332.39844,330.70703,329.4453,328.4922,327.66016,326.76953,325.78516,324.80078,323.8164,322.83203,321.9414,321.10938,320.15625,318.89453,317.11328,314.95703,312.8047,311.02344,309.66797,308.5625,307.69922,307.08594,306.89844,307.08594,307.26953,307.08594,306.3789,305.36328,304.22266,303.14844,302.16406,301.1797,300.1953,299.21094,298.22656,297.2422,296.2578,295.27344,294.1953,293.0586,292.04297,291.33594,291.15234,291.33594,291.51953,291.33594,290.61328,289.58203,288.42578,287.33203,286.3047,285.26562,284.20703,283.16797,282.15234,281.16406,280.17578,279.08594,277.9297,276.77344,275.6328,274.4922,273.35547,272.17188,270.9297,269.03125,268.09375,267.0,266.52734,265.4414,265.21094,263.6914,263.6914,260.89844,262.0,260.97656,260.92188,260.92188,260.7422,259.53906,259.53906,259.1875,258.6875,257.3789,257.26562,257.10156,256.79688,256.0,254.7461,253.84375,252.92969,252.0039,251.25781,250.50781,249.3086,247.9375,247.03125,246.52734,246.10547,245.25,244.20703,243.16406,242.19531,241.08984,238.4375,236.99219,234.64062,232.76172,231.1289,229.45703,228.76562,228.76562,226.02734,227.1289,223.80469,223.80469,219.76562,219.42188,219.11719,218.02734,217.80078,216.02344,215.7461,215.54688,215.0625,214.70312,214.95703,215.33203,215.80078,216.32422,216.8789,217.40625,217.8789,218.28516,218.6289,218.91797,219.1289,219.24219,219.26953,219.21094,219.04688,218.79297,218.44531,217.98828,217.4336,216.78906,216.0625,215.26562,214.39844,213.48438,212.51562,211.52344,210.50781,209.50781,208.51953,207.55469,206.625,205.7461,204.95703,204.27734,203.66406,203.05469,202.36719,201.60547,200.77734,199.9336,199.11719,198.27344
508.53516,509.83984,511.6797,513.9414,515.9922,517.1914,517.0039,515.8906,514.70703,514.3008,515.3164,517.16406,518.83984,519.34375,518.28906,516.2461,513.6719,511.0078,508.2461,505.1836,502.01172,498.92188,496.03125,493.21094,490.29688,487.10938,483.48047,479.53516,475.57422,471.88672,468.5664,465.45312,462.44922,459.46094,456.48047,453.5625,450.66016,447.7422,444.78906,441.82422,438.86328,435.9297,432.9375,429.91016,427.0078,424.39453,422.1875,420.27734,418.47656,416.61328,414.64453,412.66406,410.6914,408.73828,406.89844,405.1328,403.26953,401.14062,398.59375,395.75,392.8711,390.22266,387.98047,385.97266,383.91797,381.55078,378.625,375.34766,372.10156,369.27734,367.03516,365.15234,363.4336,361.6797,359.89844,358.17578,356.4375,354.60547,352.6172,350.53125,348.4414,346.45312,344.6289,342.89844,341.1797,339.3789,337.375,335.2461,333.21875,331.5078,330.26562,329.34766,328.52344,327.5703,326.39844,325.13672,323.88672,322.7422,321.82812,321.0625,320.22266,319.08203,317.4453,315.48438,313.5078,311.8203,310.46875,309.29297,308.33203,307.60938,307.29688,307.32812,307.3672,307.08594,306.33984,305.32812,304.21094,303.14844,302.16406,301.1797,300.1953,299.21094,298.22656,297.2422,296.2578,295.27344,294.1875,293.03516,292.01953,291.33594,291.23438,291.54297,291.83203,291.6875,290.92578,289.78516,288.5039,287.3203,286.27344,285.21875,284.16797,283.1211,282.10938,281.1172,280.1289,279.04297,277.875,276.6953,275.5664,274.4453,273.26953,272.03906,270.83594,269.70312,268.07812,267.39844,266.08984,264.85156,264.02734,263.73438,262.0,262.0,259.875,260.97656,259.8203,259.8203,259.64062,258.4375,259.53906,259.1211,257.4414,257.20312,257.14844,257.0547,256.67188,255.91797,255.02734,253.78516,252.82031,251.76172,250.82031,249.86328,248.66406,247.45312,246.60156,246.08984,245.59766,244.91406,243.95312,243.10547,242.26953,239.84375,238.45312,236.2461,234.5586,232.98828,231.15234,230.44922,230.44922,227.66406,228.76562,227.1289,223.8711,223.53906,223.22266,219.70703,219.0664,218.5,217.48438,217.13672,216.21484,215.4414,215.3125,215.0625,215.3164,215.70703,216.14453,216.6289,217.14844,217.63672,218.08594,218.46484,218.78125,219.04688,219.21484,219.29297,219.26953,219.16406,218.96094,218.66797,218.26953,217.76953,217.17578,216.48828,215.72266,214.88672,213.98828,213.04297,212.05469,211.05078,210.03906,209.03125,208.0586,207.10938,206.20703,205.35156,204.57031,203.8789,203.23828,202.59375,201.875,201.08594,200.23828,199.3711,198.51953,197.64062
510.60547,511.8086,513.34766,515.16016,516.83984,517.96094,518.28125,518.0664,517.6797,517.46875,517.72266,518.1914,518.4219,517.96094,516.6289,514.6836,512.34766,509.83984,507.09766,504.04297,500.8711,497.78516,494.8672,492.0,489.07422,485.97266,482.6172,479.08203,475.48828,471.9453,468.4336,464.90234,461.44922,458.16797,455.125,452.26172,449.46094,446.60156,443.66016,440.6953,437.73438,434.79297,431.78906,428.7461,425.83594,423.22656,421.04688,419.1836,417.4297,415.59766,413.64062,411.66016,409.6797,407.72266,405.84766,404.01953,402.13672,400.09766,397.83984,395.4375,392.96094,390.5,388.1211,385.76172,383.3125,380.65625,377.59375,374.2461,370.96484,368.10938,365.8164,363.8789,362.15234,360.48047,358.9336,357.5586,356.16797,354.57422,352.64844,350.51562,348.3828,346.45312,344.8672,343.48828,342.11328,340.55078,338.625,336.48828,334.41406,332.67578,331.46484,330.59766,329.78516,328.73828,327.29688,325.64844,324.0039,322.58594,321.54297,320.72656,319.91797,318.89453,317.53516,315.97266,314.39844,312.98828,311.76562,310.63672,309.64062,308.8086,308.2539,307.9297,307.61328,307.08594,306.2578,305.2539,304.1836,303.14844,302.16406,301.1797,300.1953,299.21094,298.22656,297.2422,296.2578,295.27344,294.1875,293.02734,292.0078,291.33594,291.26172,291.61328,291.9414,291.8164,291.02344,289.85156,288.51562,287.3125,286.25,285.21484,284.17188,283.125,282.08984,281.08594,280.0664,278.95703,277.7578,276.58984,275.4922,274.42188,273.23438,272.0039,270.84766,269.78906,268.77344,267.20312,266.16797,264.9375,264.41406,262.46094,262.15234,260.92188,259.8203,259.8203,259.8203,260.92188,260.7422,258.34766,259.44922,257.48047,257.39844,257.14844,257.14844,256.9336,256.48438,255.70312,254.76562,254.05469,252.70703,251.54688,250.32031,249.11328,248.01562,246.08984,245.53906,245.04688,244.625,244.17969,243.42969,242.82812,242.1914,241.38672,237.73047,236.16016,234.7539,232.9961,232.29688,232.29688,229.34766,230.44922,228.76562,226.8125,226.4414,223.42188,222.77734,222.1211,219.21484,218.11328,217.4336,216.90625,216.51953,215.58594,215.42578,215.48438,215.71094,216.0664,216.48828,216.94922,217.4375,217.875,218.28516,218.63672,218.91406,219.14062,219.27734,219.32812,219.26562,219.11328,218.86328,218.52734,218.08203,217.53906,216.89844,216.17969,215.3789,214.5039,213.57422,212.59375,211.58984,210.57422,209.55078,208.54297,207.57812,206.65625,205.78125,204.95312,204.17578,203.44922,202.7461,202.03516,201.26953,200.42969,199.54297,198.64062,197.71875,196.76953
512.6914,513.77734,514.9844,516.3047,517.5664,518.60547,519.4844,520.2539,520.7383,520.7578,520.21875,519.22656,517.9258,516.4531,514.84766,513.03906,510.98828,508.67188,505.98438,502.97266,499.83594,496.76953,493.83203,490.91406,487.97266,484.95703,481.90234,478.8125,475.6211,472.2539,468.5586,464.61328,460.70703,457.1211,453.9922,451.14844,448.40625,445.58594,442.65234,439.6953,436.73047,433.77734,430.7422,427.65234,424.6953,422.0586,419.875,418.01953,416.28125,414.46094,412.5078,410.53516,408.5547,406.58594,404.64844,402.72656,400.79297,398.8047,396.8086,394.8086,392.70703,390.40625,387.8711,385.15625,382.3125,379.39453,376.27344,372.96484,369.7578,366.9414,364.59375,362.5664,360.78125,359.15625,357.83594,356.80078,355.76172,354.42188,352.58203,350.4375,348.29688,346.45312,345.1172,344.08203,343.04688,341.71875,339.8789,337.73047,335.60938,333.84375,332.66406,331.84375,331.03906,329.90625,328.22656,326.22656,324.22656,322.5547,321.36328,320.45703,319.64062,318.71094,317.60938,316.4453,315.27734,314.16016,313.09375,312.05078,311.0547,310.1289,309.3203,308.60156,307.88672,307.08594,306.16406,305.17188,304.15234,303.14844,302.16406,301.1797,300.1953,299.21094,298.22656,297.2422,296.2578,295.27344,294.1875,293.03516,292.01953,291.33594,291.23438,291.53516,291.82812,291.6797,290.91406,289.76562,288.48438,287.29688,286.2539,285.23047,284.20312,283.16406,282.125,281.10156,280.04688,278.90234,277.6875,276.4922,275.40234,274.35156,273.22266,272.03125,270.92578,269.875,268.83984,267.85938,266.16406,265.51953,263.51172,262.3125,261.33203,260.92188,260.92188,260.92188,260.92188,260.92188,259.39453,258.29297,257.05078,256.3789,256.29688,256.04688,257.14844,256.71875,255.875,255.07031,254.71094,253.86719,252.70312,251.26953,249.90625,248.58203,246.79688,246.05469,244.69922,244.24219,243.83984,243.59766,242.92969,242.5625,242.11328,241.58203,239.11328,236.35938,234.77734,234.10156,234.10156,231.19531,232.29688,230.44922,228.52344,228.13672,226.76172,225.26172,222.53906,221.5664,220.67578,218.58594,217.67969,216.98828,216.4375,216.07422,215.89453,215.92578,216.1211,216.45703,216.85547,217.28516,217.71484,218.11719,218.48047,218.79297,219.02734,219.19531,219.3164,219.33594,219.2461,219.04297,218.76172,218.3711,217.89062,217.30078,216.625,215.86719,215.03125,214.125,213.16406,212.16016,211.13672,210.10547,209.07422,208.0664,207.10938,206.20703,205.36328,204.55469,203.77344,202.9961,202.22266,201.4414,200.6211,199.7461,198.82422,197.88281,196.91016,195.88672
514.7617,515.7461,516.73047,517.71484,518.6992,519.6836,520.9453,522.3906,523.46484,523.6211,522.48047,520.4219,517.9922,515.7461,513.8711,512.0547,510.1172,507.8711,505.1953,502.21094,499.10547,496.0625,493.10938,490.15625,487.20312,484.25,481.39062,478.58984,475.66797,472.4375,468.6875,464.5664,460.4453,456.6914,453.46094,450.53906,447.7422,444.8789,441.92578,438.97266,436.02344,433.0703,430.02344,426.91797,423.9336,421.2578,419.01172,417.07422,415.26172,413.3828,411.41406,409.4453,407.47656,405.51172,403.54297,401.57422,399.60547,397.63672,395.7578,393.9453,392.0078,389.76172,387.08594,384.10156,380.9961,377.94922,374.90625,371.80078,368.8164,366.14062,363.80078,361.71094,359.86328,358.26562,357.09766,356.29688,355.4961,354.32812,352.54297,350.39062,348.23828,346.45312,345.28516,344.48438,343.6875,342.51953,340.73438,338.58203,336.42578,334.64453,333.47656,332.67578,331.875,330.70703,328.92188,326.76953,324.6172,322.83203,321.5703,320.6172,319.78906,318.89453,317.91016,316.92578,315.9414,314.95703,313.97266,312.98828,312.0078,311.02344,310.03906,309.0547,308.0703,307.08594,306.10156,305.1172,304.1328,303.14844,302.16406,301.1797,300.1953,299.21094,298.22656,297.2422,296.2578,295.27344,294.1953,293.0586,292.04297,291.33594,291.15234,291.32422,291.5,291.3047,290.58203,289.54297,288.3828,287.28125,286.26953,285.26172,284.21875,283.1953,282.15625,281.125,280.02734,278.875,277.67578,276.46094,275.3047,274.26172,273.20703,272.10938,270.98438,269.89453,268.88672,267.90625,266.9414,264.9414,264.05078,262.20703,261.3125,261.13672,261.03516,261.01953,261.0625,261.0586,259.39453,259.39453,258.15234,257.48047,257.39844,255.875,256.97656,255.96484,255.83203,254.85547,254.42969,253.1875,252.01953,251.26172,249.73828,247.6914,247.14062,245.66406,244.6875,243.58203,243.33984,243.20312,243.07031,242.33594,242.1211,239.1289,238.875,238.57422,235.72656,235.72656,233.0,234.10156,232.29688,230.3164,229.91406,228.59766,226.98828,224.66406,223.73828,221.35547,220.20703,219.16406,218.28125,217.57422,216.98438,216.5586,216.38281,216.40234,216.57422,216.8789,217.25,217.64844,218.01953,218.35547,218.67188,218.94531,219.1289,219.25,219.32031,219.30078,219.1914,218.96484,218.63281,218.21484,217.6836,217.05078,216.33594,215.54688,214.6836,213.75,212.76562,211.7461,210.71094,209.67578,208.64453,207.64844,206.69531,205.80469,204.97266,204.17578,203.36328,202.55078,201.71484,200.8711,200.01953,199.13281,198.21875,197.28906,196.28906,195.22266
516.9297,517.8086,518.6914,519.53906,520.41016,521.375,522.8008,524.53906,525.8633,526.0508,524.6172,522.0469,519.0547,516.3594,514.1758,512.1094,509.98047,507.59375,504.85547,501.8789,498.8086,495.78516,492.82422,489.85547,486.89844,483.97266,481.17578,478.46484,475.64844,472.53125,468.9336,464.9961,461.02344,457.3047,453.9336,450.7422,447.65625,444.60156,441.58594,438.64062,435.72266,432.79297,429.76953,426.6953,423.71875,420.98047,418.55078,416.34766,414.26562,412.21484,410.20312,408.26953,406.36328,404.4336,402.48438,400.53906,398.57422,396.5586,394.5664,392.57812,390.46094,388.0703,385.2539,382.1289,378.94922,375.98047,373.26172,370.66406,368.1953,365.86328,363.6172,361.46875,359.52734,357.89844,356.79688,356.10547,355.42188,354.32812,352.5625,350.39844,348.22656,346.45312,345.34375,344.6289,343.91406,342.79297,341.0078,338.82422,336.6328,334.82812,333.66016,332.8672,332.09375,330.98438,329.3125,327.3125,325.3125,323.6328,322.42188,321.48828,320.64453,319.6953,318.58594,317.41797,316.2539,315.14453,314.1211,313.14844,312.1875,311.20703,310.1836,309.14453,308.10547,307.08594,306.08594,305.10547,304.1289,303.14844,302.16406,301.1797,300.1953,299.21094,298.22656,297.2422,296.2578,295.27344,294.21484,293.10938,292.10156,291.33594,290.96484,290.8711,290.8047,290.4922,289.875,289.0703,288.1914,287.27734,286.34375,285.32812,284.25,283.19922,282.15234,281.0664,279.9414,278.79688,277.64844,276.4414,275.26562,274.23047,273.2578,272.21875,271.03516,269.92188,268.98047,268.02734,266.94922,265.7539,263.63672,262.14453,261.6953,261.33984,261.14453,261.14453,260.48438,259.92188,259.73438,258.51172,258.25,257.51172,256.97656,256.97656,254.86328,255.96484,254.82422,254.67969,253.3789,252.21484,251.83984,250.8125,248.7539,248.04297,246.6289,246.29688,244.66797,244.33594,243.05469,243.05469,242.29297,242.29297,241.26562,239.95703,238.61719,238.61719,237.21484,234.625,235.72656,234.10156,233.5586,231.85938,230.64062,228.90625,226.55078,225.48438,223.16797,221.95703,220.80078,219.76953,218.92578,218.17969,217.5625,217.10938,216.90234,216.91797,217.07031,217.32031,217.65625,217.9961,218.3164,218.60938,218.89062,219.11719,219.24219,219.30078,219.30469,219.23828,219.11719,218.86328,218.5,218.02344,217.45703,216.79688,216.04688,215.22266,214.33594,213.38672,212.39062,211.3711,210.33984,209.3086,208.28906,207.29688,206.34766,205.45703,204.61328,203.78906,202.94531,202.08203,201.19531,200.3125,199.45703,198.6211,197.78906,196.9375,195.98438,194.94922
519.1719,519.9297,520.77344,521.5742,522.41406,523.375,524.8633,526.71094,528.1211,528.2969,526.73047,523.9414,520.6875,517.71484,515.1992,512.7461,510.2578,507.625,504.79297,501.82812,498.8086,495.8164,492.85156,489.8789,486.92188,484.0039,481.20312,478.48438,475.6953,472.6836,469.3672,465.83984,462.23047,458.66016,455.10156,451.5078,447.98438,444.6328,441.52734,438.58984,435.72266,432.82422,429.82812,426.8086,423.84375,421.01172,418.3125,415.70703,413.23047,410.92188,408.84766,406.97266,405.16016,403.29688,401.39062,399.4961,397.53516,395.42188,393.15234,390.76172,388.2422,385.57812,382.6172,379.41016,376.27734,373.52344,371.3164,369.46094,367.73047,365.89453,363.78906,361.5703,359.48828,357.77344,356.6875,356.03516,355.39062,354.32812,352.57422,350.40625,348.23438,346.45312,345.33984,344.625,343.89844,342.76562,340.9414,338.70312,336.46484,334.64453,333.46875,332.67578,331.9453,330.95312,329.53516,327.89062,326.2422,324.80078,323.70703,322.8164,321.9336,320.86328,319.48047,317.91016,316.34375,314.95703,313.83594,312.8672,311.96094,311.02344,310.03906,309.0547,308.0703,307.08594,306.10156,305.1172,304.1328,303.14844,302.16406,301.1797,300.1953,299.21094,298.22656,297.2422,296.2578,295.27344,294.2422,293.1836,292.1836,291.33594,290.69922,290.21484,289.78516,289.3164,288.84375,288.39844,287.90234,287.27344,286.4414,285.42578,284.3125,283.21094,282.1289,280.98438,279.82422,278.70703,277.6211,276.46875,275.28906,274.27734,273.35547,272.3672,271.17578,270.07812,269.14062,268.1797,266.98438,265.70312,263.6289,262.8203,262.1328,261.48438,261.1211,260.78125,260.48438,260.48047,260.1172,259.5703,257.85547,257.1875,256.96094,255.96484,255.96484,253.72266,254.82422,253.4414,253.21484,252.11328,251.26562,250.89844,248.96484,247.47266,247.10547,245.72656,245.4375,244.14062,244.14062,241.95312,241.1914,242.29297,241.23438,240.5625,239.73438,237.51562,236.11328,234.65625,235.75781,235.1875,233.6836,232.60547,230.9336,229.0586,227.4375,225.01953,223.78906,222.60938,221.47266,220.48438,219.63672,218.8711,218.20703,217.71094,217.49219,217.4961,217.58203,217.78906,218.08594,218.35938,218.63672,218.8789,219.11719,219.28906,219.35156,219.34766,219.28906,219.1875,219.02344,218.74219,218.33594,217.82422,217.22266,216.52344,215.74219,214.89062,213.98438,213.02734,212.03906,211.03516,210.01953,209.00781,208.00781,207.02344,206.08203,205.17578,204.29688,203.42578,202.53906,201.61719,200.6836,199.76562,198.92578,198.17969,197.48828,196.77344,195.91016,194.92969
521.25,521.9297,522.8008,523.64844,524.52734,525.4961,526.95703,528.75,530.08594,530.1719,528.5078,525.6172,522.22656,519.0664,516.26953,513.46875,510.64453,507.78125,504.86328,501.90625,498.9336,495.96875,493.0078,490.03906,487.08594,484.15625,481.30078,478.4922,475.65625,472.71484,469.6875,466.60156,463.39453,460.01172,456.3047,452.34375,448.41406,444.78906,441.59375,438.66797,435.84766,432.97656,430.01172,427.03906,424.08203,421.16406,418.21875,415.2578,412.4297,409.8789,407.72656,405.8672,404.11328,402.28125,400.41016,398.5664,396.61328,394.40625,391.85938,389.0586,386.13672,383.21094,380.1289,376.88672,373.83203,371.3086,369.59375,368.4414,367.41016,366.04688,364.10547,361.8672,359.6797,357.89844,356.78516,356.09375,355.41797,354.32812,352.5703,350.41016,348.2422,346.45312,345.3125,344.55078,343.78125,342.60938,340.76953,338.52344,336.28125,334.46094,333.2539,332.42188,331.6914,330.80078,329.65234,328.40234,327.14062,325.96875,325.0,324.15234,323.23047,322.03125,320.375,318.40234,316.4336,314.77344,313.55078,312.58594,311.73047,310.83594,309.89062,308.96094,308.03125,307.08594,306.11328,305.1289,304.13672,303.14844,302.16406,301.1797,300.1953,299.21094,298.22656,297.2422,296.2578,295.27344,294.26953,293.2539,292.26562,291.32812,290.4336,289.5547,288.77344,288.14844,287.83203,287.73438,287.625,287.25,286.51172,285.4961,284.35156,283.20703,282.10156,280.92578,279.7578,278.66016,277.58203,276.46484,275.33984,274.35156,273.46484,272.5078,271.39062,270.30078,269.25,268.17188,266.95703,265.75,264.64453,263.5625,262.5586,261.60938,261.08203,260.71094,261.01953,261.03516,260.5078,259.08203,257.84766,256.78125,256.08203,255.8086,254.82422,254.82422,252.33984,253.4414,252.21875,252.04688,251.2539,250.875,248.35547,247.54688,246.58203,246.3164,245.21484,245.21484,243.03906,244.14062,242.29297,240.60156,240.13281,239.46094,238.63281,239.73438,237.21484,235.75781,235.75781,235.29297,234.34375,232.82422,231.01172,229.4414,227.09375,225.74219,224.52344,223.38672,222.3086,221.33984,220.4336,219.59375,218.89062,218.41406,218.21094,218.13672,218.19922,218.33594,218.53906,218.73047,218.9414,219.16406,219.34766,219.44922,219.46484,219.39844,219.28125,219.125,218.91016,218.59766,218.14844,217.60156,216.96484,216.2461,215.4336,214.5625,213.64062,212.6914,211.71875,210.74219,209.7539,208.77344,207.79688,206.84375,205.90234,204.98047,204.0625,203.14453,202.20703,201.23828,200.26562,199.32422,198.51953,197.86328,197.3125,196.72266,195.95703,195.03906
522.91406,523.6211,524.60547,525.58984,526.5742,527.5586,528.91016,530.5117,531.6172,531.4922,529.64844,526.5742,523.0039,519.6836,516.73047,513.77734,510.82422,507.8711,504.91797,501.96484,499.01562,496.0625,493.10938,490.15625,487.20312,484.25,481.29688,478.34375,475.39062,472.4375,469.57812,466.78125,463.85938,460.6289,456.875,452.7539,448.6328,444.8789,441.64844,438.72656,435.9297,433.0703,430.1172,427.16406,424.21094,421.2578,418.21094,415.10547,412.1211,409.4453,407.20312,405.26562,403.44922,401.57422,399.6953,397.8828,395.9453,393.69922,391.02344,388.03906,384.9336,381.88672,378.75,375.48828,372.47656,370.07812,368.6328,367.86328,367.21484,366.14062,364.35547,362.20312,360.05078,358.26562,357.09766,356.29688,355.4961,354.32812,352.54297,350.39062,348.23828,346.45312,345.28516,344.48438,343.6875,342.51953,340.73438,338.58203,336.42578,334.64453,333.3828,332.4297,331.59766,330.70703,329.72266,328.73828,327.7539,326.76953,325.8789,325.04688,324.09375,322.83203,321.04688,318.89453,316.7422,314.95703,313.69922,312.7422,311.91406,311.02344,310.03906,309.0547,308.0703,307.08594,306.10156,305.1172,304.1328,303.14844,302.16406,301.1797,300.1953,299.21094,298.22656,297.2422,296.2578,295.27344,294.28906,293.3047,292.3203,291.33594,290.25,289.10156,288.08203,287.35156,287.14453,287.28906,287.44922,287.23828,286.53516,285.51562,284.33203,283.14453,282.0,280.85547,279.73438,278.63672,277.5547,276.4961,275.45703,274.45703,273.48438,272.5586,271.52734,270.46094,269.26172,268.0078,266.8789,265.84375,264.8164,263.72266,262.6172,261.70312,261.22656,261.20312,261.4453,261.33594,260.65625,258.98438,257.95312,256.70703,256.11328,254.89844,254.6875,253.4414,253.4414,251.11719,252.21875,251.30469,251.22266,250.8164,248.84766,247.5039,247.26172,246.05078,246.05078,244.11328,245.21484,244.14062,241.70312,241.70312,241.23438,240.5625,239.73438,239.73438,236.20703,235.875,235.6289,235.4336,234.58984,232.46094,231.26562,229.02734,227.83984,226.58984,225.39453,224.28906,223.27344,222.26172,221.25,220.3789,219.69922,219.23047,218.96484,218.85547,218.85156,218.89453,218.97656,219.08594,219.24219,219.42578,219.5664,219.60938,219.5664,219.46094,219.26562,219.04297,218.76953,218.41797,217.95312,217.36719,216.70703,215.96094,215.14062,214.24219,213.3164,212.3711,211.42969,210.48438,209.53516,208.59375,207.66016,206.73438,205.8086,204.88281,203.9414,203.0,202.03906,201.04688,200.05469,199.10938,198.32422,197.71875,197.24219,196.71875,196.0,195.10938
523.8906,524.78906,526.03906,527.33594,528.5703,529.6172,530.77344,531.9844,532.64844,532.1406,529.96484,526.5664,522.73047,519.2539,516.3086,513.4883,510.70703,507.8711,504.96875,502.04688,499.10547,496.15234,493.21094,490.26172,487.28516,484.25,481.10156,477.8711,474.65234,471.54688,468.6875,465.98438,463.20312,460.10547,456.48438,452.51562,448.53516,444.8789,441.6875,438.76562,435.94922,433.0703,430.08203,427.07812,424.09375,421.16406,418.26172,415.3711,412.58203,409.96875,407.58594,405.375,403.26953,401.20312,399.26953,397.46875,395.58984,393.42188,390.85938,388.03125,385.07422,382.1328,379.03906,375.78516,372.75,370.32422,368.8086,367.9336,367.21094,366.14062,364.51953,362.63672,360.73828,359.0664,357.79297,356.7539,355.6836,354.32812,352.46875,350.28906,348.14062,346.36328,345.1875,344.3828,343.60938,342.51953,340.92188,339.04297,337.1289,335.4453,334.0547,332.8203,331.6953,330.61328,329.60547,328.6836,327.78906,326.86328,325.97266,325.1172,324.15234,322.92578,321.2461,319.2422,317.2461,315.57422,314.38672,313.48828,312.67188,311.73047,310.58984,309.3672,308.14062,306.9922,305.94922,304.96875,304.01562,303.0547,302.08984,301.1328,300.17578,299.21094,298.23438,297.2461,296.26172,295.27344,294.29688,293.32422,292.33984,291.32812,290.1875,288.9414,287.83984,287.07422,286.92188,287.1914,287.46875,287.33984,286.6289,285.5625,284.3125,283.0547,281.88672,280.75,279.6836,278.60938,277.54297,276.51172,275.5039,274.44922,273.41406,272.47656,271.53125,270.51172,269.28125,267.97266,266.85938,265.96484,265.03516,263.91406,262.83203,261.9336,261.3789,261.08203,260.91797,260.53906,259.9297,259.19922,257.8203,257.13672,255.66016,255.08203,253.66016,253.42578,252.21875,252.21875,250.20312,251.30469,250.9336,250.83984,249.0586,248.14844,246.98438,246.98438,244.94922,246.05078,245.21484,242.19922,242.01172,241.8711,241.3711,240.0586,239.85156,239.6289,239.32812,238.27734,235.78906,235.38281,234.8086,233.16797,230.82031,229.73828,228.75781,227.51172,226.25,225.14453,224.13672,223.10156,222.0039,221.13281,220.5039,220.03906,219.6914,219.51562,219.46094,219.45703,219.39453,219.42188,219.53516,219.6914,219.78125,219.76953,219.65625,219.48828,219.23047,218.94531,218.61719,218.23438,217.75781,217.14844,216.44531,215.6875,214.83984,213.9336,213.0039,212.08203,211.16406,210.2539,209.35547,208.46484,207.59375,206.71484,205.82422,204.91797,203.99219,203.05078,202.09766,201.125,200.15625,199.22656,198.4336,197.80078,197.26953,196.69531,195.9414,195.01953
524.3867,525.58984,527.22266,528.9883,530.58984,531.7383,532.60156,533.2461,533.2617,532.23047,529.66016,525.89453,521.79297,518.20703,515.3906,512.8867,510.45703,507.8711,505.07812,502.19922,499.26172,496.3086,493.375,490.4336,487.41406,484.25,480.8203,477.1914,473.58594,470.22266,467.26953,464.5664,461.86328,458.90625,455.53906,451.92188,448.29297,444.8789,441.77734,438.85156,435.98828,433.0703,430.01953,426.91797,423.875,421.01172,418.40234,415.96875,413.59375,411.16797,408.60547,405.98828,403.4375,401.08203,399.0586,397.26562,395.47656,393.45312,391.14453,388.67188,386.0664,383.36328,380.3828,377.16797,374.09766,371.5547,369.76172,368.47656,367.3789,366.14062,364.69922,363.21875,361.72266,360.23438,358.8086,357.42188,355.96094,354.32812,352.35156,350.1289,347.98047,346.20703,345.02734,344.22656,343.4922,342.51953,341.20312,339.71875,338.15625,336.61328,335.03906,333.41406,331.84766,330.46094,329.3203,328.35547,327.45703,326.52344,325.58984,324.6953,323.72656,322.58594,321.14844,319.4961,317.85156,316.4336,315.39062,314.57422,313.76562,312.7422,311.3789,309.8086,308.22656,306.83984,305.71094,304.73047,303.82422,302.90234,301.96875,301.0547,300.14453,299.21094,298.2422,297.2578,296.26172,295.27344,294.29688,293.3203,292.33984,291.32812,290.1875,288.95312,287.84375,287.10156,286.98047,287.29297,287.6172,287.5078,286.76562,285.63672,284.3047,282.9961,281.8125,280.6953,279.64062,278.59375,277.5547,276.5586,275.5078,274.42188,273.35938,272.375,271.4453,270.41797,269.28516,268.10547,267.07812,266.21484,265.2578,264.16797,263.10547,262.125,261.30078,260.59375,259.97656,259.35547,258.89062,258.5547,258.23828,256.98828,255.96875,254.52344,253.27734,252.48828,252.26953,251.30469,251.30469,249.83203,250.9336,250.6836,248.78516,248.78516,247.86719,245.88281,246.98438,246.05078,245.6836,244.86719,244.25781,242.0664,241.04688,240.66016,240.30078,239.875,239.3086,238.63281,237.21094,235.49219,234.60938,233.53516,231.51562,230.57812,229.61328,228.28125,226.92188,225.73828,224.6875,223.67188,222.64453,221.8086,221.16797,220.73828,220.33984,220.10156,219.97266,219.92188,219.83203,219.78516,219.86719,219.97656,219.9961,219.89844,219.70312,219.46875,219.17578,218.85156,218.49219,218.07422,217.55078,216.91406,216.1914,215.39844,214.53906,213.63281,212.71484,211.8125,210.9336,210.07031,209.22266,208.39453,207.58594,206.77344,205.9375,205.07031,204.17188,203.26562,202.35547,201.4375,200.52344,199.625,198.8086,198.07812,197.40625,196.69531,195.84766,194.86328
524.8594,526.3867,528.40234,530.60156,532.53125,533.7383,534.2461,534.2461,533.5469,531.95703,528.9883,524.8906,520.5625,516.91406,514.28906,512.1758,510.16797,507.8711,505.17578,502.29688,499.3203,496.33984,493.4297,490.52344,487.5039,484.25,480.57422,476.59766,472.64062,469.02344,465.9297,463.14453,460.4453,457.58203,454.47656,451.2539,448.02344,444.8789,441.8711,438.9375,436.01953,433.0703,429.98047,426.8164,423.7578,420.98047,418.67188,416.6875,414.72656,412.4922,409.78125,406.79297,403.83203,401.20312,399.07422,397.2461,395.5,393.60547,391.5703,389.48828,387.27344,384.83984,381.98828,378.8164,375.70703,373.03125,370.91016,369.14062,367.59375,366.14062,364.85938,363.78125,362.69922,361.40234,359.82422,358.07812,356.22656,354.32812,352.26172,350.03906,347.92578,346.1797,344.97266,344.1328,343.40234,342.51953,341.46875,340.3789,339.17578,337.78125,336.05078,334.0664,332.10156,330.4297,329.16797,328.15625,327.25,326.3086,325.33203,324.3828,323.41406,322.3711,321.19922,319.9414,318.6875,317.54297,316.625,315.85156,315.01172,313.8828,312.28125,310.36328,308.4375,306.8086,305.59766,304.625,303.76172,302.8711,301.9414,301.03906,300.14062,299.21094,298.2461,297.2578,296.26562,295.27344,294.29297,293.3125,292.32812,291.32812,290.22266,289.03516,287.98047,287.2578,287.1328,287.41797,287.6836,287.53906,286.78125,285.6172,284.26953,282.96875,281.83203,280.72656,279.6797,278.65234,277.64844,276.65234,275.54688,274.46484,273.4336,272.41016,271.32812,270.25,269.26953,268.28906,267.35156,266.38672,265.29297,264.1875,263.16016,262.1797,261.11328,259.98828,259.04688,258.34375,258.03125,257.97266,257.9297,257.65625,256.01172,254.84766,253.32422,252.76562,251.60938,251.46094,250.9336,250.9336,249.58203,250.6836,249.60156,247.6836,246.76562,245.96875,247.07031,246.6836,245.6914,244.96484,244.36719,243.79688,242.13672,241.51562,240.97656,240.39062,239.6211,238.59766,237.64844,235.83984,234.69922,233.47266,232.35938,231.34766,230.27734,228.85156,227.40234,226.21094,225.15234,224.17578,223.2539,222.41797,221.75781,221.28516,220.9375,220.67188,220.48828,220.375,220.25781,220.1875,220.17969,220.1836,220.14844,219.98828,219.74219,219.4414,219.1289,218.78516,218.38672,217.89844,217.32422,216.65234,215.91406,215.10156,214.24219,213.33984,212.4375,211.5664,210.72656,209.90625,209.1211,208.3711,207.63281,206.88281,206.11328,205.28906,204.4336,203.57031,202.71875,201.86328,201.01562,200.16406,199.3164,198.48047,197.64453,196.79297,195.84375,194.80078
525.77344,527.5586,529.8008,532.23047,534.29297,535.4297,535.5547,534.9375,533.58594,531.4922,528.2031,523.8672,519.40625,515.7461,513.3164,511.5625,509.9336,507.8711,505.1953,502.21094,499.10547,496.0625,493.19922,490.40234,487.48047,484.25,480.4961,476.375,472.2539,468.5039,465.27344,462.35156,459.55078,456.6914,453.73828,450.78516,447.83203,444.8789,441.92578,438.97266,436.02344,433.0703,430.02344,426.91797,423.9336,421.2578,419.10547,417.3203,415.53516,413.3828,410.6172,407.47656,404.33984,401.57422,399.32812,397.39062,395.57422,393.69922,391.82422,390.0078,388.0703,385.82422,383.0547,379.91797,376.78125,374.01562,371.67578,369.58594,367.73828,366.14062,364.97266,364.17188,363.3711,362.20312,360.51172,358.51172,356.39062,354.32812,352.26953,350.14453,348.14453,346.45312,345.1953,344.23828,343.41016,342.51953,341.625,340.79688,339.84375,338.58203,336.79688,334.64453,332.4922,330.70703,329.4453,328.4922,327.66016,326.76953,325.78516,324.80078,323.8164,322.83203,321.84766,320.86328,319.8789,318.89453,318.0039,317.17188,316.21875,314.95703,313.17578,311.02344,308.8672,307.08594,305.82422,304.8711,304.03906,303.14844,302.16406,301.1797,300.1953,299.21094,298.22656,297.2422,296.2578,295.27344,294.28906,293.3047,292.3203,291.32812,290.25,289.10156,288.0664,287.35156,287.16406,287.32812,287.47656,287.2539,286.5078,285.4336,284.1875,282.98828,281.92578,280.84375,279.77344,278.76172,277.76172,276.73438,275.60547,274.5586,273.55078,272.4453,271.19922,270.09375,269.21094,268.36328,267.4961,266.41016,265.1914,264.0078,263.08594,262.20703,261.07812,259.7422,258.58594,257.8047,257.5586,257.6211,257.71484,257.51562,256.8828,254.95312,254.05078,252.4375,251.82031,251.23828,251.11328,250.6836,250.6836,249.08203,248.5,249.60156,247.86719,247.07031,247.07031,246.6875,245.86328,244.98828,244.20312,243.9336,243.13672,242.26172,241.48047,240.83594,240.03516,238.91797,237.67969,236.58594,235.52344,234.34766,233.25,232.03906,230.78516,229.38281,227.95312,226.7539,225.69922,224.77344,223.91406,223.01562,222.2539,221.77344,221.4961,221.21484,220.97266,220.76562,220.6289,220.48438,220.33984,220.22656,220.16406,220.01953,219.7539,219.42969,219.08594,218.70312,218.25,217.69531,217.07422,216.38672,215.63281,214.8164,213.94531,213.0586,212.17969,211.34766,210.54297,209.77734,209.04688,208.35938,207.6914,207.01562,206.29688,205.52344,204.70703,203.88672,203.07422,202.26562,201.45703,200.63281,199.78516,198.90625,198.0039,197.08594,196.09375,195.01562
527.39844,529.33984,531.6367,534.04297,535.98047,536.875,536.5469,535.3086,533.33203,530.78516,527.2422,522.7656,518.27344,514.66797,512.47266,511.10547,509.84375,507.96484,505.16797,501.875,498.45312,495.26172,492.5078,489.96094,487.33203,484.34375,480.78125,476.83984,472.84766,469.1172,465.73828,462.53516,459.44922,456.41406,453.45703,450.59766,447.76172,444.8789,441.90625,438.89062,435.89062,432.97656,430.1211,427.3047,424.59375,422.0586,419.82812,417.83594,415.83203,413.5703,410.8828,407.9375,404.98438,402.28125,399.90234,397.70703,395.6328,393.60547,391.75,390.05078,388.2539,386.10156,383.3672,380.2422,377.09375,374.28906,371.8711,369.65234,367.6953,366.04688,364.9375,364.26172,363.58984,362.48047,360.71875,358.57812,356.32422,354.23828,352.33203,350.48438,348.7461,347.16406,345.76953,344.53516,343.40625,342.33203,341.42188,340.66016,339.8203,338.67188,336.9961,334.96484,332.94922,331.3203,330.26172,329.53906,328.92578,328.1836,327.2461,326.2422,325.22656,324.2461,323.35547,322.51172,321.64453,320.6797,319.65625,318.59766,317.39453,315.9414,314.04688,311.8164,309.61328,307.79297,306.53125,305.60938,304.79688,303.85547,302.70703,301.48828,300.26562,299.1172,298.07422,297.09375,296.14062,295.1797,294.21484,293.2578,292.30078,291.32812,290.27344,289.16797,288.13672,287.35938,286.9922,286.8828,286.78516,286.45703,285.85156,285.03906,284.09375,283.1289,282.1172,281.01172,279.88672,278.83203,277.8125,276.73438,275.625,274.625,273.58594,272.4453,271.1875,270.0664,269.1875,268.30078,267.41406,266.34766,265.1211,263.92188,263.01953,262.3086,261.36328,260.11328,258.9375,258.14453,257.91016,257.85156,257.875,257.66797,257.08594,256.19922,254.10547,253.1914,251.96484,251.48047,250.94531,250.83203,250.1836,250.1836,249.60156,249.60156,247.96484,247.13672,246.89844,246.6836,245.88672,244.76172,244.22266,243.44922,242.99219,242.14453,241.4336,241.0,240.53906,239.73047,238.69922,237.61328,236.4961,235.22266,233.98438,232.67188,231.39844,230.0664,228.76953,227.52344,226.42578,225.41016,224.54297,223.5664,222.73047,222.17969,221.9375,221.67188,221.3711,221.07812,220.8789,220.63672,220.375,220.16016,220.10156,219.98438,219.73438,219.3789,218.99219,218.5586,218.05078,217.46094,216.82812,216.13281,215.375,214.54297,213.66797,212.79297,211.9414,211.14062,210.38672,209.67188,209.0039,208.36719,207.7539,207.13281,206.45703,205.73047,204.94922,204.15625,203.36328,202.55469,201.73828,200.92188,200.125,199.33984,198.54688,197.72266,196.77344,195.72266
529.4414,531.4922,533.73047,535.9531,537.60547,538.1367,537.28516,535.3867,532.76953,529.77344,526.0117,521.46875,517.0156,513.53125,511.6172,510.6875,509.82422,508.1172,505.11328,501.3672,497.48828,494.09375,491.48438,489.29297,487.10156,484.4961,481.30078,477.76172,474.08203,470.46875,466.90625,463.3047,459.77734,456.4453,453.39062,450.53906,447.75,444.8789,441.84375,438.72656,435.67578,432.82422,430.2578,427.88672,425.58594,423.22656,420.78906,418.33594,415.8672,413.3828,410.875,408.33984,405.8047,403.29688,400.7578,398.20312,395.73438,393.45312,391.53906,389.88672,388.17188,386.0703,383.34766,380.22656,377.07422,374.26172,371.8125,369.5547,367.5586,365.89453,364.80078,364.17188,363.53906,362.44922,360.64453,358.41797,356.1172,354.08203,352.4375,350.9922,349.61328,348.17578,346.59766,344.96484,343.39453,342.02734,340.98828,340.1797,339.3711,338.33594,336.8711,335.15234,333.48438,332.1836,331.4414,331.0586,330.7461,330.21484,329.35547,328.33984,327.27344,326.27734,325.4375,324.6797,323.85547,322.83203,321.58203,320.17188,318.6172,316.92578,314.95312,312.7422,310.59375,308.8086,307.57422,306.69922,305.89453,304.8711,303.48438,301.91797,300.34766,298.96484,297.83594,296.85938,295.94922,295.02734,294.09375,293.17578,292.26953,291.33203,290.3203,289.25,288.23047,287.35938,286.71875,286.22656,285.77734,285.30078,284.85547,284.47656,283.97656,283.27734,282.33594,281.20312,280.01172,278.8672,277.7539,276.6289,275.5547,274.58594,273.60938,272.48047,271.3125,270.29297,269.34766,268.36328,267.35938,266.32812,265.1328,263.90625,263.0,262.34766,261.6953,260.8125,259.88672,259.23438,258.85547,258.5703,258.33203,257.96484,257.34375,256.58203,255.5039,253.53516,252.64453,251.53516,250.98438,250.5039,250.42969,250.33594,250.1875,249.5586,249.35156,248.64453,246.86328,246.3789,245.94922,244.82812,243.65234,243.3086,242.78516,242.07422,241.58984,241.41406,241.17188,240.53906,239.57031,238.46875,237.28906,235.8789,234.52734,233.34375,232.29688,231.1289,229.79297,228.35938,227.05469,225.94531,225.01953,224.10547,223.32031,222.77344,222.40234,222.04688,221.64062,221.3164,221.08203,220.78125,220.4414,220.19531,220.0625,219.91406,219.63281,219.26562,218.86328,218.38672,217.83203,217.21875,216.58984,215.90234,215.1211,214.27344,213.40625,212.52344,211.70312,210.95312,210.2539,209.59375,208.96875,208.375,207.80469,207.22656,206.59766,205.90625,205.16406,204.39062,203.58594,202.7539,201.89844,201.08203,200.38281,199.79688,199.2461,198.6211,197.78125,196.77734
531.5117,533.64844,535.7461,537.66406,538.9219,539.03125,537.6758,535.1758,532.0039,528.6328,524.73047,520.1992,515.85547,512.5156,510.85156,510.27734,509.73047,508.14844,504.9453,500.78906,496.5039,492.92188,490.4453,488.5664,486.76953,484.52734,481.71484,478.60156,475.27734,471.82422,468.11328,464.14844,460.21875,456.59766,453.4297,450.54297,447.7539,444.8789,441.79688,438.6289,435.5625,432.79297,430.5,428.53906,426.60547,424.39453,421.73438,418.8203,415.89453,413.19922,410.89062,408.8047,406.72656,404.4336,401.7578,398.84766,395.98047,393.42188,391.39844,389.71875,388.01562,385.91797,383.1836,380.0586,376.91016,374.10547,371.6836,369.46875,367.51172,365.86328,364.75,364.07812,363.40625,362.29688,360.48047,358.2461,355.97656,354.05078,352.6836,351.6289,350.60156,349.3164,347.57812,345.58203,343.6172,341.96484,340.78125,339.8828,339.0664,338.1211,336.88672,335.51562,334.23828,333.28906,332.8789,332.83594,332.8164,332.4922,331.71875,330.6953,329.58594,328.5547,327.71875,326.96484,326.1172,324.98438,323.48438,321.72266,319.82422,317.91016,315.88672,313.73047,311.67578,309.9453,308.75,307.92188,307.1172,306.0078,304.38672,302.47266,300.5547,298.9336,297.72266,296.75,295.88672,294.9961,294.0703,293.16016,292.26562,291.33203,290.34766,289.32422,288.3086,287.35547,286.45312,285.57422,284.78125,284.14062,283.83984,283.8086,283.73438,283.29688,282.41797,281.2461,280.0,278.79297,277.60938,276.46875,275.4414,274.54688,273.67188,272.65625,271.60938,270.61328,269.59766,268.5078,267.45312,266.3828,265.16797,263.91797,262.96875,262.34375,261.9297,261.48828,261.07812,260.71875,260.17578,259.46484,258.80078,258.15234,257.54688,256.77734,255.84766,254.80469,252.86328,251.94531,251.0039,250.86719,250.8125,250.63281,250.01172,249.57812,249.23828,248.88281,247.74219,246.23828,245.50781,244.96875,243.85156,243.4961,242.96875,242.34375,241.9961,241.83594,241.6289,241.02344,240.03906,238.90234,237.64062,236.19922,234.96875,234.04297,233.23438,232.13672,230.67969,229.07812,227.57812,226.39453,225.54688,224.78125,224.13672,223.5,222.9336,222.40234,221.91406,221.59766,221.36328,221.03906,220.60156,220.23047,220.01172,219.78906,219.47266,219.11719,218.73047,218.22656,217.61719,216.96094,216.3125,215.625,214.84766,213.99219,213.1211,212.26562,211.48047,210.76953,210.1289,209.51953,208.9375,208.38281,207.83984,207.29297,206.69922,206.04688,205.33203,204.57422,203.76953,202.90234,202.01562,201.21094,200.61719,200.2461,199.96484,199.54688,198.82422,197.88281
533.21484,535.4297,537.33984,538.875,539.6758,539.3672,537.6133,534.6914,531.15625,527.5586,523.6211,519.1914,515.0078,511.8086,510.26953,509.83984,509.41016,507.8711,504.58203,500.2461,495.78516,492.125,489.6953,487.9414,486.3125,484.25,481.66797,478.83594,475.76172,472.4375,468.6875,464.5664,460.4453,456.6914,453.46094,450.53906,447.7422,444.8789,441.83594,438.72656,435.7461,433.0703,430.91406,429.1328,427.34766,425.1953,422.42578,419.28906,416.15234,413.3828,411.23047,409.4453,407.66406,405.51172,402.7422,399.60547,396.46875,393.69922,391.54688,389.76172,387.97656,385.82422,383.0547,379.91797,376.78125,374.01562,371.67578,369.58594,367.73828,366.14062,364.97266,364.17188,363.3711,362.20312,360.41797,358.26562,356.11328,354.32812,353.16016,352.35938,351.5625,350.39062,348.60938,346.45312,344.30078,342.51953,341.2578,340.3047,339.47266,338.58203,337.5039,336.3672,335.35156,334.64453,334.46094,334.64453,334.82812,334.64453,333.9375,332.92188,331.78516,330.70703,329.8164,328.98438,328.03125,326.76953,325.07812,323.07812,320.95703,318.89453,316.83594,314.71094,312.71484,311.02344,309.85156,309.0547,308.2539,307.08594,305.30078,303.14844,300.9961,299.21094,297.94922,296.9961,296.16406,295.27344,294.28906,293.3047,292.3164,291.33594,290.35156,289.35547,288.35938,287.36328,286.28906,285.14844,284.10938,283.34375,283.08203,283.20312,283.32812,283.03516,282.22266,281.09766,279.85938,278.6797,277.52734,276.4375,275.4414,274.60938,273.79688,272.86328,271.8711,270.84375,269.75,268.625,267.57422,266.41016,265.13672,263.86328,262.96484,262.40234,262.14062,262.0703,262.0625,261.91406,261.28516,260.26562,259.22656,258.42188,257.72656,256.95703,255.9961,254.90625,253.75,252.07031,251.48047,251.27344,251.14844,250.66797,250.08203,249.46875,249.125,248.72266,247.99219,246.29688,245.32031,244.60938,244.14062,243.73047,243.3164,242.67188,242.1914,241.91406,241.65234,241.10547,240.14062,239.05469,237.86328,236.53516,235.46094,234.71094,233.98047,232.89453,231.38281,229.77344,228.27734,227.16406,226.35547,225.6875,225.0039,224.22266,223.4961,222.75781,222.22266,221.95312,221.72656,221.28906,220.75,220.25781,219.92578,219.59375,219.26172,218.91797,218.54688,218.02734,217.375,216.66406,215.98438,215.28125,214.51172,213.67969,212.83594,212.01953,211.27344,210.60547,210.0039,209.42969,208.8789,208.35938,207.84766,207.33594,206.76562,206.14062,205.44922,204.71484,203.92188,203.0625,202.19922,201.42578,200.92578,200.6836,200.53516,200.23047,199.57812,198.67578
534.3125,536.60156,538.2461,539.2969,539.5586,538.84375,536.84375,533.7422,530.10156,526.48047,522.66016,518.46094,514.5117,511.4414,509.85156,509.26953,508.67578,507.07422,503.8711,499.71875,495.4336,491.84766,489.32422,487.3711,485.53516,483.35938,480.77344,478.01172,475.03906,471.82422,468.1953,464.23047,460.25,456.59766,453.38672,450.42578,447.59766,444.78906,441.9375,439.11328,436.39844,433.8672,431.65625,429.6875,427.70703,425.47266,422.78516,419.82422,416.88672,414.27734,412.23047,410.53125,408.8086,406.6797,403.89453,400.70703,397.48438,394.58984,392.23828,390.1953,388.16016,385.82422,382.95703,379.76562,376.6328,373.92188,371.76172,369.94922,368.35156,366.84766,365.51562,364.38672,363.2578,361.92578,360.22656,358.3047,356.42578,354.85156,353.8047,353.08984,352.3672,351.28516,349.60938,347.57422,345.53125,343.83984,342.64453,341.73438,340.9414,340.08594,339.0547,337.95312,336.98438,336.33594,336.23828,336.52734,336.8125,336.70312,336.0625,335.10547,333.98828,332.85938,331.80078,330.71484,329.4961,328.03125,326.22266,324.15234,321.98438,319.8789,317.77734,315.6289,313.60938,311.91406,310.76172,310.0039,309.23438,308.0703,306.23438,303.9922,301.7539,299.91797,298.67578,297.78125,296.9961,296.07422,294.9336,293.71094,292.4922,291.33984,290.3047,289.33203,288.3672,287.3711,286.2578,285.04297,283.91406,283.03516,282.64062,282.5625,282.53906,282.21094,281.51172,280.60547,279.625,278.6211,277.58594,276.53516,275.53516,274.6914,273.91016,273.01172,271.98438,270.84375,269.69922,268.60547,267.57812,266.4453,265.16406,263.95703,263.15625,262.65625,262.53125,262.5625,262.71875,262.5625,261.88672,260.82422,259.73047,258.8125,258.01953,257.08203,255.95312,254.83984,253.80469,252.84375,252.13281,251.7461,251.39453,250.8086,249.89062,249.19531,248.89844,248.47656,247.54688,246.59766,245.75,244.98438,244.27344,243.76953,243.39844,242.86328,242.3164,241.95312,241.6875,241.32422,240.45312,239.36328,238.26953,237.14062,236.17578,235.40234,234.67188,233.5664,232.1836,230.6914,229.23828,228.14062,227.3711,226.61719,225.7539,224.77734,223.9336,223.1875,222.63281,222.29297,221.96875,221.4375,220.7461,220.14453,219.73047,219.39453,219.05078,218.70312,218.30078,217.74219,217.03906,216.3086,215.60156,214.89844,214.14844,213.3711,212.59375,211.82812,211.11719,210.46094,209.875,209.3164,208.79688,208.3086,207.83984,207.35547,206.8086,206.1875,205.5,204.78125,204.05469,203.3125,202.57422,201.91797,201.44922,201.17578,200.95703,200.58203,199.94922,199.1211
535.0508,537.39844,538.70703,539.15234,538.78516,537.64453,535.4922,532.3867,528.83203,525.34375,521.7539,517.89844,514.2578,511.3164,509.5586,508.60938,507.66016,505.90234,502.90625,499.16797,495.29297,491.8789,489.16406,486.8047,484.51953,482.03516,479.32422,476.51562,473.57422,470.46875,467.08594,463.47266,459.85156,456.4453,453.28516,450.26172,447.3789,444.6328,442.07812,439.6953,437.3828,435.03906,432.64453,430.2539,427.85547,425.4414,422.9453,420.39844,417.91016,415.59766,413.64062,411.92188,410.13672,407.96875,405.22266,402.09766,398.89453,395.91406,393.30078,390.8672,388.4375,385.82422,382.8047,379.53516,376.39453,373.76953,371.8711,370.46094,369.23047,367.86328,366.28516,364.66406,363.03906,361.46484,359.89453,358.32812,356.85156,355.5586,354.59375,353.8672,353.125,352.11328,350.65234,348.91406,347.17578,345.71484,344.66016,343.83984,343.09766,342.27344,341.21875,340.0586,339.01953,338.33594,338.2461,338.5664,338.89453,338.82812,338.2539,337.39844,336.32812,335.13672,333.8164,332.33594,330.71875,328.98438,327.09375,325.04688,322.9414,320.86328,318.73047,316.52734,314.46094,312.7422,311.61328,310.89844,310.1836,309.0547,307.23047,304.9922,302.7539,300.9336,299.75,298.94922,298.21484,297.2422,295.8789,294.3125,292.73047,291.33984,290.22266,289.26172,288.35156,287.39062,286.29688,285.1328,284.0078,283.03906,282.35938,281.85547,281.4375,280.98047,280.4375,279.9375,279.3672,278.6953,277.8047,276.73438,275.6289,274.7422,273.91016,272.97656,271.89453,270.70312,269.5664,268.53516,267.6211,266.61328,265.46484,264.41797,263.54297,263.03906,263.0,263.14062,263.23438,262.98828,262.29297,261.39844,260.34766,259.33594,258.33984,257.1953,255.9961,254.79297,253.79688,253.01562,252.32031,251.8164,251.29688,250.58984,249.7461,249.15234,248.83203,248.35156,247.5586,246.76953,246.02344,245.2461,244.34375,243.71094,243.32812,242.92578,242.50781,242.29297,242.20703,241.9961,241.15234,239.96875,238.85938,237.82422,236.875,235.98828,235.16406,234.25,233.05469,231.71094,230.30469,229.16406,228.28906,227.35156,226.3125,225.21094,224.3164,223.6211,223.01172,222.53516,222.08984,221.46484,220.69922,220.00781,219.53906,219.19531,218.83594,218.42578,217.97656,217.39844,216.67188,215.91406,215.17969,214.48047,213.78516,213.08984,212.38672,211.6836,210.98438,210.32812,209.72266,209.16797,208.66797,208.22266,207.80078,207.35938,206.82031,206.1836,205.47266,204.77344,204.16016,203.61328,203.10547,202.61328,202.14453,201.71484,201.26562,200.71094,200.07422,199.3711
535.7969,538.1992,539.1367,538.9336,537.89453,536.3242,534.0586,531.0117,527.625,524.3281,521.02344,517.5547,514.25,511.4414,509.46875,508.07422,506.6875,504.73438,501.9453,498.66406,495.2422,492.03125,489.14062,486.3711,483.63672,480.83594,477.96484,475.0703,472.1289,469.1172,465.98828,462.76953,459.55078,456.41406,453.3203,450.23828,447.29688,444.60156,442.32422,440.34766,438.40234,436.20703,433.59766,430.7539,427.90625,425.28906,422.97656,420.84766,418.8125,416.79688,414.89844,413.1211,411.23438,409.01562,406.3164,403.28516,400.14062,397.11328,394.26562,391.48047,388.6875,385.82422,382.6875,379.3711,376.26172,373.73828,372.10547,371.08984,370.21484,369.0,367.23047,365.1875,363.14453,361.3711,359.95703,358.75,357.66797,356.63672,355.69922,354.875,354.03906,353.0664,351.85938,350.5039,349.15234,347.96094,347.01172,346.20703,345.4375,344.57812,343.4961,342.28516,341.1875,340.45703,340.32812,340.61328,340.91016,340.82422,340.28125,339.47656,338.4336,337.16406,335.60156,333.7578,331.78125,329.8164,327.8711,325.8828,323.8672,321.84766,319.71875,317.5039,315.42578,313.69922,312.5664,311.85547,311.14844,310.03906,308.2461,306.0547,303.85938,302.0703,300.9336,300.1836,299.46484,298.41016,296.8125,294.90234,292.97656,291.33984,290.14062,289.1836,288.32812,287.41016,286.3828,285.3164,284.23438,283.21484,282.23828,281.28516,280.46484,279.84375,279.51172,279.33984,279.20312,278.85938,278.08594,277.01562,275.8047,274.78516,273.85938,272.85547,271.73828,270.60547,269.64062,268.7461,267.86328,266.94922,265.98438,264.95703,264.0078,263.40625,263.41016,263.60156,263.6289,263.21094,262.54688,261.67188,260.60547,259.47266,258.41016,257.27734,256.1172,254.96484,253.9961,253.17969,252.48047,251.88281,251.28516,250.63672,249.88281,249.32422,248.97266,248.4336,247.625,246.76172,245.98828,245.30078,244.53516,243.96875,243.58984,243.19922,242.96875,242.91406,243.07031,242.94531,241.96484,240.6211,239.39062,238.36719,237.47656,236.49219,235.69531,234.9414,233.9375,232.65625,231.16406,229.92188,228.9414,227.92188,226.8164,225.74219,224.83594,224.08594,223.32812,222.66016,222.09766,221.45703,220.6875,219.94922,219.4336,219.01562,218.5664,218.0625,217.55469,216.97656,216.26953,215.5,214.78516,214.11719,213.47266,212.83203,212.1836,211.52734,210.84766,210.17969,209.55469,208.9961,208.51172,208.10156,207.72266,207.3086,206.77734,206.125,205.40625,204.72656,204.22656,203.88672,203.6211,203.27734,202.76562,202.13672,201.40234,200.6289,199.94922,199.32422
536.90625,539.3672,539.9531,539.1211,537.4297,535.4297,533.03125,530.01953,526.7578,523.6211,520.5742,517.46875,514.4844,511.8086,509.65625,507.8711,506.08984,503.9336,501.2578,498.27734,495.16797,492.125,489.17188,486.21875,483.26562,480.3125,477.35938,474.40625,471.45312,468.5039,465.55078,462.59766,459.64453,456.6914,453.64453,450.53906,447.5547,444.8789,442.72656,440.9414,439.16016,437.0078,434.23828,431.10156,427.96484,425.1953,422.94922,421.01172,419.1953,417.3203,415.4453,413.6289,411.6914,409.4453,406.76953,403.78906,400.6797,397.63672,394.6836,391.73047,388.77734,385.82422,382.6875,379.42578,376.41406,374.01562,372.5664,371.80078,371.15234,370.07812,368.29297,366.14062,363.98828,362.20312,360.9414,359.98828,359.15625,358.26562,357.28125,356.29688,355.3125,354.32812,353.34375,352.35938,351.375,350.39062,349.40625,348.42188,347.4375,346.45312,345.3789,344.23828,343.22656,342.51953,342.33203,342.51953,342.70312,342.51953,341.90234,341.04297,339.9336,338.58203,336.89062,334.89062,332.76562,330.70703,328.73828,326.76953,324.80078,322.83203,320.77344,318.64844,316.64844,314.95703,313.78906,312.98828,312.1914,311.02344,309.23828,307.08594,304.9297,303.14844,301.98047,301.1797,300.3828,299.21875,297.4375,295.28906,293.14453,291.35156,290.08594,289.13672,288.3164,287.4336,286.4297,285.42578,284.3828,283.33594,282.23438,281.08984,280.08984,279.40625,279.14453,279.16797,279.16797,278.9453,278.23438,277.17188,275.94922,274.8711,273.8828,272.84766,271.76172,270.77734,269.9414,269.16797,268.3086,267.41016,266.46094,265.40234,264.29297,263.58203,263.52734,263.73047,263.71484,263.26172,262.4922,261.5078,260.35547,259.15625,258.09766,257.1953,256.2539,255.34375,254.39453,253.5586,252.76562,252.10547,251.49219,250.8086,250.04688,249.54297,249.16406,248.61328,247.8164,246.875,246.0664,245.46875,245.10547,244.66016,244.14453,243.64844,243.46875,243.64453,243.83594,243.63672,242.5586,241.1211,239.92578,238.9375,238.08594,237.16797,236.28906,235.4375,234.45312,233.26172,231.84375,230.57422,229.48828,228.42578,227.35938,226.34375,225.42188,224.47656,223.53125,222.69922,222.10547,221.42969,220.66016,219.8711,219.3164,218.8086,218.23438,217.65625,217.11719,216.53516,215.85547,215.10547,214.42578,213.79688,213.17969,212.57031,211.9414,211.3086,210.65234,209.9961,209.36719,208.80078,208.32812,207.9375,207.57031,207.17578,206.65234,206.00781,205.30469,204.66797,204.24219,204.02344,203.88281,203.60156,203.03516,202.22656,201.28125,200.32422,199.55469,198.89453
538.6914,541.2461,541.4961,540.0469,537.6992,535.2461,532.65625,529.58594,526.3672,523.34375,520.5547,517.84375,515.21875,512.6992,510.38672,508.2422,506.0625,503.66016,500.92188,497.98047,494.96875,492.03125,489.21484,486.4414,483.66016,480.83594,477.9414,475.0039,472.05078,469.1172,466.20703,463.3086,460.40625,457.4922,454.47266,451.3828,448.39844,445.6797,443.42578,441.5,439.5625,437.28125,434.4375,431.2461,428.05078,425.1953,422.8047,420.6875,418.69922,416.70703,414.78516,412.97656,411.0625,408.83203,406.14453,403.14062,400.02734,397.01953,394.15625,391.32812,388.52344,385.73438,382.79297,379.76562,376.96875,374.72266,373.29688,372.46875,371.78125,370.78516,369.27734,367.53125,365.79688,364.32422,363.2578,362.4375,361.67188,360.7578,359.58984,358.29297,357.01953,355.9297,355.16016,354.59375,354.0039,353.16016,351.89453,350.3672,348.83203,347.53125,346.51172,345.64844,344.9414,344.39453,344.16016,344.1914,344.16797,343.77734,342.92578,341.78125,340.42578,338.94922,337.3203,335.51172,333.60547,331.6914,329.7461,327.73828,325.73828,323.8164,321.95703,320.1289,318.40234,316.83594,315.5664,314.52344,313.44922,312.09766,310.27734,308.16797,306.05078,304.22266,302.8789,301.82812,300.76953,299.40234,297.5039,295.28125,293.09375,291.27344,290.01172,289.07812,288.28516,287.42578,286.41797,285.3789,284.33984,283.33984,282.39844,281.46094,280.6797,280.10938,279.78125,279.61328,279.38672,278.97656,278.23438,277.1953,276.0547,274.97266,274.0039,273.03516,272.01562,271.10547,270.30078,269.5625,268.76562,267.84375,266.8125,265.64062,264.52734,263.66016,263.33984,263.32422,263.21875,262.70312,261.86328,260.79688,259.6328,258.4453,257.52344,256.8789,256.3711,255.76562,254.99219,254.13281,253.28516,252.53906,251.89453,251.15625,250.41406,249.86328,249.42969,248.86719,248.10547,247.17578,246.39844,245.94531,245.73047,245.22266,244.5039,243.89453,243.92188,244.29297,244.47266,244.07812,243.02344,241.79297,240.6914,239.6211,238.67188,237.71094,236.79688,235.84766,234.83984,233.79688,232.57422,231.28125,230.04688,228.84375,227.84375,226.86328,225.875,224.78906,223.70703,222.8086,222.1211,221.38672,220.55078,219.70703,219.07031,218.5039,217.89453,217.29297,216.70703,216.11328,215.45312,214.73828,214.10156,213.49219,212.89453,212.28516,211.66406,211.03125,210.39844,209.76953,209.16797,208.60938,208.13281,207.70703,207.3164,206.89453,206.39453,205.8086,205.1836,204.59766,204.1875,203.92578,203.69531,203.3125,202.65234,201.76562,200.73438,199.65625,198.69531,197.79297
540.8867,543.5508,543.46484,541.3828,538.35547,535.4297,532.6289,529.48047,526.28906,523.375,520.8711,518.58984,516.3672,514.02344,511.54297,509.01172,506.39844,503.6875,500.79297,497.7539,494.72656,491.8789,489.3203,486.9414,484.5703,482.03516,479.26953,476.375,473.41797,470.46875,467.53516,464.58203,461.6172,458.66016,455.65625,452.6172,449.64453,446.84766,444.35156,442.0664,439.77344,437.2539,434.35938,431.23828,428.10938,425.1953,422.53125,420.01172,417.6211,415.35156,413.33594,411.53906,409.67578,407.47656,404.76172,401.71094,398.58984,395.66797,393.01953,390.5,388.04297,385.57812,382.97266,380.3047,377.8086,375.73438,374.23828,373.15234,372.2539,371.3086,370.27734,369.27734,368.3086,367.3711,366.53906,365.78516,364.96484,363.92578,362.46875,360.72656,359.04688,357.77344,357.23047,357.16016,357.02344,356.29688,354.58984,352.26953,349.9297,348.17578,347.2422,346.77734,346.52344,346.20703,345.91406,345.73047,345.41797,344.73047,343.51562,341.9336,340.21094,338.58203,337.1328,335.73438,334.28516,332.67578,330.79297,328.72266,326.66016,324.80078,323.23828,321.84766,320.52344,319.14062,317.73047,316.32812,314.85547,313.23438,311.3672,309.3164,307.2539,305.36328,303.75,302.3047,300.85547,299.22656,297.23828,295.03516,292.90625,291.1328,289.90234,289.0078,288.2539,287.42578,286.38672,285.29297,284.22656,283.35156,282.71484,282.25,281.90234,281.53125,281.0547,280.4922,279.79688,279.07812,278.1953,277.17578,276.08984,275.13672,274.20312,273.26172,272.33594,271.39062,270.5703,269.82812,269.08594,268.22266,267.14453,265.88672,264.65234,263.60938,262.91797,262.54297,262.23047,261.75,260.89062,259.85547,258.70312,257.66016,256.95703,256.64453,256.48438,256.23047,255.52344,254.64844,253.70703,252.92188,252.3164,251.76172,251.11719,250.57422,249.92969,249.29688,248.47656,247.57812,246.71484,246.15625,245.91016,245.375,244.44531,243.9961,244.27344,244.85938,244.94922,244.2539,243.38672,242.51562,241.54297,240.26172,238.98047,237.86719,237.03516,236.11328,235.26562,234.35938,233.26562,231.95703,230.60938,229.2539,228.2461,227.21094,226.14844,224.96484,223.875,222.91797,222.10547,221.30078,220.44531,219.54688,218.80469,218.1836,217.58984,216.97266,216.32812,215.71094,215.08984,214.4414,213.8125,213.20703,212.61328,211.98438,211.33984,210.69531,210.08203,209.5,208.95703,208.42969,207.92969,207.4375,206.96094,206.48047,206.0039,205.52734,205.03906,204.54297,204.07812,203.64062,203.16797,202.5625,201.79297,200.88281,199.82812,198.65625,197.42969,196.14062
542.9961,545.7344,545.3164,542.6328,538.97266,535.6172,532.64453,529.45703,526.3281,523.52734,521.2578,519.33203,517.4258,515.22266,512.6094,509.76562,506.8047,503.84375,500.8047,497.66406,494.61328,491.84766,489.55078,487.57422,485.61328,483.35938,480.69922,477.8086,474.8125,471.82422,468.85156,465.84375,462.82422,459.82812,456.83984,453.85547,450.90234,448.01562,445.2461,442.5625,439.875,437.09766,434.17578,431.16406,428.14453,425.1953,422.26953,419.34375,416.54688,414.0,411.89062,410.10156,408.29297,406.125,403.3789,400.27344,397.14453,394.3125,391.90625,389.73438,387.66016,385.54688,383.28125,380.95703,378.7578,376.875,375.34766,374.08203,373.04688,372.19922,371.66797,371.42188,371.21484,370.78516,370.1328,369.3711,368.42578,367.21484,365.48047,363.34375,361.3047,359.86328,359.5078,359.84766,360.08594,359.4336,357.29297,354.21484,351.1211,348.9453,348.10547,348.05078,348.2461,348.14453,347.73828,347.26562,346.58594,345.5625,343.9961,342.01172,339.96484,338.21094,336.95312,335.96875,334.96484,333.66016,331.84375,329.71484,327.58984,325.78516,324.4922,323.5039,322.54297,321.32422,319.7578,318.0,316.13672,314.25,312.32812,310.33203,308.32812,306.3789,304.51562,302.71484,300.91016,299.04688,297.0078,294.86328,292.82812,291.11328,289.88672,288.9961,288.26953,287.4375,286.3789,285.21094,284.16797,283.41406,283.08594,283.0703,283.14844,282.9453,282.28906,281.34766,280.28125,279.26953,278.25,277.1797,276.1836,275.29297,274.44922,273.5586,272.67188,271.7578,270.8828,270.1211,269.39453,268.51953,267.3711,266.04688,264.73047,263.51172,262.52734,261.79688,261.23828,260.72656,259.91016,258.9336,257.92578,257.04297,256.6289,256.53906,256.65234,256.54297,255.92578,254.97266,253.91016,253.07422,252.66797,252.4414,252.0039,251.38672,250.63672,249.875,249.01953,247.89453,246.80078,246.00781,245.64062,245.09766,244.4375,244.22266,244.70312,245.22656,245.10547,244.28906,243.48438,242.89453,242.09766,240.69922,239.17578,237.89844,237.1211,236.39453,235.64844,234.80078,233.76172,232.40234,230.98047,229.6289,228.53125,227.40625,226.23828,225.07812,224.03906,223.0586,222.14844,221.27734,220.41016,219.47656,218.64844,217.9336,217.33594,216.71484,216.02734,215.39844,214.8086,214.20703,213.59766,212.98047,212.35938,211.72266,211.03906,210.3711,209.7539,209.21875,208.73047,208.23828,207.70312,207.13281,206.55078,206.01172,205.57422,205.22656,204.88672,204.48438,203.9336,203.27344,202.51562,201.67578,200.8125,199.89062,198.85938,197.61719,196.13281,194.44531
