73.89453,73.890625,73.890625,73.89453,73.89844,73.90234,73.91016,73.921875,73.93359,73.94531,73.96094,73.98047,74.0,74.01953,74.04297,74.06641,74.08984,74.11328,74.140625,74.171875,74.19922,74.22656,74.25781,74.28516,74.31641,74.34766,74.375,74.40625,74.43359,74.46094,74.48828,74.515625,74.54297,74.56641,74.58984,74.609375,74.62891,74.64844,74.66406,74.67578,74.69141,74.69922,74.71094,74.71484,74.71875,74.72266,74.72266,74.72266,74.71875,74.71484,74.71094,74.703125,74.69141,74.68359,74.671875,74.66016,74.64844,74.63672,74.625,74.62109,74.625,74.640625,74.66797,74.71484,74.77344,74.85156,74.94531,75.05469,75.18359,75.328125,75.48828,75.66016,75.85156,76.05078,76.26172,76.48047,76.71094,76.94141,77.17969,77.41797,77.66016,77.89844,78.13281,78.359375,78.58203,78.796875,79.0,79.19141,79.37109,79.53516,79.68359,79.8125,79.92969,80.02344,80.09766,80.15234,80.1875,80.203125,80.19531,80.16797,80.12109,80.05078,79.96094,79.85156,79.72266,79.578125,79.41406,79.23047,79.03516,78.82422,78.60156,78.36328,78.11719,77.859375,77.59375,77.32422,77.04297,76.76172,76.47656,76.18359,75.89453,75.60156,75.30859,75.015625,74.72266,74.42969,74.140625,73.85156,73.5625,73.28125,73.0,72.72656,72.46094,72.203125,71.95703,71.71875,71.49219,71.27734,71.08203,70.89844,70.73047,70.578125,70.44922,70.33594,70.24219,70.16797,70.11328,70.08203,70.07031,70.078125,70.10547,70.15625,70.22266,70.3125,70.41797,70.54297,70.67969,70.83594,71.00781,71.1875,71.38281,71.58594,71.796875,72.015625,72.23828,72.46484,72.69531,72.921875,73.14453,73.36719,73.58203,73.78906,73.984375,74.171875,74.34766,74.51172,74.65625,74.78906,74.90625,75.00781,75.09375,75.16406,75.21484,75.25391,75.28125,75.30078,75.30469,75.30859,75.30859,75.30859,75.30859,75.30859,75.30859,75.30859,75.30859,75.30859,75.30859,75.30859,75.30859,75.30859,75.30859,75.30859,75.30859,75.30859,75.30859,75.30859,75.30859,75.30859,75.30859,75.30859,75.30859,75.30859,75.30859,75.30859,75.30859,75.30859,75.30859,75.30859,75.30859,75.30859,75.30859,75.30859,75.30859,75.30859,75.30859,75.30859,75.30859,75.30859,75.30859,75.30859,75.30859,75.30859,75.30859,75.30859,75.30859,75.30859,75.30859,75.30859,75.30859,75.30859,75.30859,75.30859,75.30859,75.30859,75.30859,75.30859,75.30859,75.30859,75.30859,75.30859,75.30859,75.30859,75.30859,75.30859,75.30859,75.30469
73.46484,73.46484,73.46484,73.46484,73.46875,73.47656,73.48828,73.5,73.515625,73.53125,73.55078,73.57031,73.59375,73.62109,73.64844,73.67578,73.70703,73.73828,73.77344,73.80859,73.84375,73.87891,73.91406,73.953125,73.98828,74.02734,74.0625,74.09766,74.13281,74.16797,74.203125,74.234375,74.265625,74.296875,74.32422,74.35156,74.375,74.39453,74.41797,74.43359,74.44922,74.46094,74.47266,74.48047,74.48828,74.49219,74.49219,74.48828,74.484375,74.48047,74.47266,74.46094,74.44922,74.4375,74.42578,74.41016,74.39453,74.37891,74.36719,74.359375,74.359375,74.37109,74.39844,74.4375,74.49609,74.57031,74.66016,74.76953,74.89453,75.03516,75.19141,75.36719,75.55078,75.75,75.96094,76.17969,76.40625,76.63672,76.875,77.11328,77.35547,77.59375,77.83203,78.0625,78.28516,78.50391,78.70703,78.90234,79.08594,79.25391,79.40625,79.54297,79.66016,79.76172,79.84375,79.90234,79.94531,79.96484,79.96484,79.94531,79.90234,79.83984,79.75781,79.65625,79.53516,79.39453,79.23828,79.0625,78.87109,78.66797,78.44922,78.21875,77.97656,77.72656,77.46484,77.19531,76.921875,76.64453,76.359375,76.07422,75.78516,75.49609,75.20703,74.91797,74.62891,74.33984,74.05078,73.765625,73.48047,73.19922,72.92578,72.65625,72.390625,72.13672,71.890625,71.65625,71.42969,71.21875,71.02344,70.84375,70.67578,70.52734,70.39844,70.28516,70.19531,70.12109,70.06641,70.03516,70.02344,70.03125,70.05859,70.109375,70.17578,70.26172,70.36719,70.49219,70.62891,70.78125,70.94922,71.13281,71.32422,71.52344,71.734375,71.94922,72.171875,72.39453,72.62109,72.84375,73.06641,73.28516,73.5,73.703125,73.89844,74.08594,74.25781,74.41797,74.5625,74.69531,74.80859,74.91016,74.99219,75.0625,75.11719,75.15625,75.18359,75.19922,75.20703,75.20703,75.20703,75.20703,75.20703,75.20703,75.20703,75.20703,75.20703,75.20703,75.20703,75.20703,75.20703,75.20703,75.20703,75.20703,75.20703,75.20703,75.20703,75.20703,75.20703,75.20703,75.20703,75.20703,75.20703,75.20703,75.20703,75.20703,75.20703,75.20703,75.20703,75.20703,75.20703,75.20703,75.20703,75.20703,75.20703,75.20703,75.20703,75.20703,75.20703,75.20703,75.20703,75.20703,75.20703,75.20703,75.20703,75.20703,75.20703,75.20703,75.20703,75.20703,75.20703,75.20703,75.20703,75.20703,75.20703,75.20703,75.20703,75.20703,75.20703,75.20703,75.20703,75.20703,75.20703,75.20703,75.20703,75.20703,75.20703,75.203125
73.03125,73.03125,73.02734,73.03125,73.03906,73.046875,73.05859,73.07031,73.08984,73.109375,73.13281,73.16016,73.1875,73.21875,73.25,73.28516,73.32422,73.36328,73.40234,73.44531,73.48828,73.53125,73.57422,73.62109,73.66406,73.71094,73.75391,73.796875,73.83984,73.88281,73.92578,73.96484,74.0,74.03906,74.07031,74.10156,74.13281,74.16016,74.18359,74.203125,74.22266,74.23828,74.25,74.26172,74.26953,74.27344,74.27344,74.26953,74.265625,74.25781,74.25,74.23828,74.22266,74.20703,74.19141,74.171875,74.15234,74.13672,74.11719,74.10547,74.10547,74.11328,74.13672,74.17578,74.22656,74.296875,74.38672,74.48828,74.61328,74.75,74.90625,75.07422,75.25781,75.45703,75.66406,75.88281,76.10547,76.33984,76.57422,76.81641,77.05469,77.296875,77.53125,77.765625,77.99219,78.21094,78.421875,78.62109,78.80859,78.98047,79.13672,79.27734,79.40234,79.50781,79.59766,79.66406,79.71094,79.73828,79.74609,79.734375,79.69922,79.64453,79.57031,79.47266,79.359375,79.22656,79.078125,78.91016,78.72656,78.53125,78.32031,78.09375,77.859375,77.61328,77.35547,77.09375,76.82422,76.55078,76.26953,75.98828,75.703125,75.41797,75.13281,74.84766,74.5625,74.27344,73.99219,73.70703,73.42578,73.14844,72.87891,72.609375,72.35156,72.09766,71.85547,71.625,71.40234,71.19531,71.0,70.82031,70.65625,70.51172,70.38281,70.27344,70.17969,70.109375,70.05469,70.02344,70.01172,70.01953,70.046875,70.09766,70.16406,70.25,70.35156,70.47266,70.609375,70.76172,70.92969,71.10547,71.296875,71.49609,71.703125,71.91406,72.13281,72.35547,72.578125,72.80078,73.01953,73.234375,73.44531,73.64844,73.83984,74.02344,74.19531,74.35156,74.49609,74.625,74.74219,74.83984,74.921875,74.98828,75.04297,75.08203,75.10547,75.125,75.12891,75.13281,75.13281,75.13281,75.13281,75.13281,75.13281,75.13281,75.13281,75.13281,75.13281,75.13281,75.13281,75.13281,75.13281,75.13281,75.13281,75.13281,75.13281,75.13281,75.13281,75.13281,75.13281,75.13281,75.13281,75.13281,75.13281,75.13281,75.13281,75.13281,75.13281,75.13281,75.13281,75.13281,75.13281,75.13281,75.13281,75.13281,75.13281,75.13281,75.13281,75.13281,75.13281,75.13281,75.13281,75.13281,75.13281,75.13281,75.13281,75.13281,75.13281,75.13281,75.13281,75.13281,75.13281,75.13281,75.13281,75.13281,75.13281,75.13281,75.13281,75.13281,75.13281,75.13281,75.13281,75.13281,75.13281,75.13281,75.13281,75.12891
72.59375,72.58984,72.58984,72.59375,72.60156,72.609375,72.625,72.640625,72.66016,72.6875,72.71484,72.74609,72.77734,72.81641,72.85547,72.89453,72.94141,72.98828,73.03516,73.08594,73.13672,73.1875,73.24219,73.29297,73.34766,73.40234,73.453125,73.50781,73.55859,73.609375,73.65625,73.703125,73.75,73.79297,73.83203,73.87109,73.90625,73.9375,73.96484,73.99219,74.01172,74.03125,74.046875,74.05859,74.06641,74.07031,74.07031,74.06641,74.0625,74.05469,74.04297,74.02734,74.01172,73.99219,73.96875,73.94922,73.92578,73.90234,73.88281,73.86719,73.86328,73.86719,73.88672,73.91797,73.96875,74.03516,74.11719,74.21875,74.33594,74.47266,74.625,74.79297,74.97266,75.16797,75.37109,75.58984,75.8125,76.04297,76.28125,76.51953,76.76172,77.00391,77.24219,77.47656,77.703125,77.92578,78.140625,78.34375,78.53516,78.71094,78.875,79.01953,79.15234,79.265625,79.359375,79.43359,79.48828,79.52344,79.53906,79.53516,79.50781,79.46094,79.39453,79.30859,79.203125,79.078125,78.9375,78.77734,78.60156,78.41406,78.20703,77.99219,77.76172,77.51953,77.27344,77.015625,76.75,76.48047,76.20703,75.92969,75.64844,75.36719,75.08594,74.80469,74.51953,74.23828,73.95703,73.67969,73.40234,73.12891,72.859375,72.59766,72.33984,72.09375,71.85156,71.625,71.40625,71.19922,71.00781,70.83203,70.671875,70.52734,70.39844,70.28906,70.19922,70.12891,70.078125,70.046875,70.03516,70.04297,70.07031,70.11719,70.18359,70.26953,70.37109,70.48828,70.625,70.77344,70.9375,71.11328,71.30078,71.49609,71.69922,71.91016,72.125,72.34375,72.56641,72.78516,73.0,73.21094,73.41797,73.62109,73.80859,73.99219,74.16016,74.31641,74.45703,74.58594,74.69922,74.796875,74.87891,74.94531,74.99609,75.03516,75.05859,75.07422,75.08203,75.08594,75.08594,75.08594,75.08594,75.08594,75.08594,75.08594,75.08594,75.08594,75.08594,75.08594,75.08594,75.08594,75.08594,75.08594,75.08594,75.08594,75.08594,75.08594,75.08594,75.08594,75.08594,75.08594,75.08594,75.08594,75.08594,75.08594,75.08594,75.08594,75.08594,75.08594,75.08594,75.08594,75.08594,75.08594,75.08594,75.08594,75.08594,75.08594,75.08594,75.08594,75.08594,75.08594,75.08594,75.08594,75.08594,75.08594,75.08594,75.08594,75.08594,75.08594,75.08594,75.08594,75.08594,75.08594,75.08594,75.08594,75.08594,75.08594,75.08594,75.08594,75.08594,75.08594,75.08594,75.08594,75.08594,75.08594,75.08594,75.08203
72.15625,72.15234,72.15234,72.15234,72.16016,72.171875,72.1875,72.21094,72.234375,72.26172,72.29297,72.328125,72.37109,72.41406,72.45703,72.50781,72.55859,72.61328,72.671875,72.73047,72.78906,72.85156,72.91406,72.97656,73.03906,73.10156,73.16406,73.22266,73.28516,73.34375,73.40234,73.45703,73.50781,73.55859,73.60547,73.65234,73.69141,73.73047,73.76172,73.79297,73.82031,73.83984,73.859375,73.87109,73.87891,73.88672,73.88672,73.88281,73.875,73.86328,73.85156,73.83203,73.8125,73.78906,73.765625,73.73828,73.71484,73.6875,73.66016,73.640625,73.63281,73.63281,73.64453,73.67578,73.71875,73.78125,73.86328,73.95703,74.07422,74.203125,74.35156,74.515625,74.69531,74.88672,75.08984,75.30469,75.52734,75.75391,75.99219,76.23047,76.47266,76.71484,76.953125,77.19141,77.421875,77.64844,77.86328,78.07031,78.265625,78.44922,78.61719,78.76953,78.91016,79.02734,79.12891,79.21094,79.27734,79.32031,79.34375,79.34766,79.328125,79.29297,79.234375,79.15625,79.0625,78.94531,78.8125,78.66406,78.49609,78.3125,78.11719,77.90625,77.6875,77.453125,77.21094,76.96094,76.69922,76.4375,76.16797,75.89453,75.61719,75.34375,75.0625,74.78516,74.50781,74.23047,73.953125,73.67969,73.40625,73.140625,72.875,72.61328,72.36328,72.11719,71.88281,71.65625,71.44141,71.23828,71.05078,70.875,70.71875,70.57422,70.44922,70.34375,70.25391,70.18359,70.13281,70.10156,70.08984,70.09766,70.125,70.171875,70.23828,70.32031,70.421875,70.53906,70.671875,70.82031,70.98047,71.15234,71.33594,71.53125,71.73047,71.9375,72.15234,72.36719,72.58203,72.796875,73.01172,73.21875,73.42578,73.62109,73.80859,73.984375,74.15234,74.30469,74.44531,74.57031,74.68359,74.77734,74.859375,74.92578,74.97656,75.01172,75.03906,75.05469,75.0625,75.0625,75.0625,75.0625,75.0625,75.0625,75.0625,75.0625,75.0625,75.0625,75.0625,75.0625,75.0625,75.0625,75.0625,75.0625,75.0625,75.0625,75.0625,75.0625,75.0625,75.0625,75.0625,75.0625,75.0625,75.0625,75.0625,75.0625,75.0625,75.0625,75.0625,75.0625,75.0625,75.0625,75.0625,75.0625,75.0625,75.0625,75.0625,75.0625,75.0625,75.0625,75.0625,75.0625,75.0625,75.0625,75.0625,75.0625,75.0625,75.0625,75.0625,75.0625,75.0625,75.0625,75.0625,75.0625,75.0625,75.0625,75.0625,75.0625,75.0625,75.0625,75.0625,75.0625,75.0625,75.0625,75.0625,75.0625,75.0625,75.05859
71.71875,71.71484,71.71094,71.71484,71.72266,71.73828,71.75391,71.77734,71.80469,71.83984,71.875,71.91797,71.96484,72.01172,72.06641,72.125,72.18359,72.24609,72.3125,72.37891,72.44922,72.51953,72.59375,72.66406,72.73828,72.8125,72.88281,72.953125,73.02344,73.09375,73.16016,73.22266,73.28516,73.34375,73.39844,73.44922,73.49609,73.53906,73.578125,73.61328,73.64453,73.66797,73.6875,73.703125,73.71484,73.71875,73.71875,73.71484,73.70703,73.69531,73.67578,73.65625,73.63281,73.60547,73.578125,73.546875,73.515625,73.484375,73.453125,73.42969,73.41406,73.41016,73.41797,73.44531,73.484375,73.54297,73.61719,73.70703,73.82031,73.94531,74.08984,74.25,74.42578,74.61328,74.8125,75.02344,75.24609,75.47656,75.71094,75.94922,76.19141,76.43359,76.67578,76.91406,77.14844,77.375,77.59766,77.80859,78.00781,78.19531,78.37109,78.53125,78.67578,78.80078,78.91016,79.00391,79.07422,79.12891,79.16016,79.171875,79.16406,79.13672,79.08984,79.02344,78.9375,78.83203,78.70703,78.56641,78.41016,78.234375,78.046875,77.84766,77.63281,77.40625,77.171875,76.92578,76.67578,76.41797,76.15234,75.88672,75.61328,75.34375,75.07031,74.796875,74.52344,74.25,73.98047,73.71094,73.44141,73.17578,72.91797,72.66406,72.41406,72.171875,71.94141,71.71875,71.50781,71.30859,71.125,70.953125,70.796875,70.65625,70.53516,70.42969,70.34375,70.27344,70.22266,70.19141,70.17969,70.1875,70.21484,70.26172,70.32422,70.40625,70.50781,70.62109,70.75391,70.89844,71.05469,71.22656,71.40625,71.59766,71.79297,72.0,72.20703,72.41797,72.62891,72.84375,73.05078,73.25781,73.45703,73.65234,73.83594,74.01172,74.171875,74.32422,74.46094,74.58594,74.69531,74.78906,74.86719,74.93359,74.984375,75.01953,75.046875,75.05859,75.06641,75.07031,75.07031,75.07031,75.07031,75.07031,75.07031,75.07031,75.07031,75.07031,75.07031,75.07031,75.07031,75.07031,75.07031,75.07031,75.07031,75.07031,75.07031,75.07031,75.07031,75.07031,75.07031,75.07031,75.07031,75.07031,75.07031,75.07031,75.07031,75.07031,75.07031,75.07031,75.07031,75.07031,75.07031,75.07031,75.07031,75.07031,75.07031,75.07031,75.07031,75.07031,75.07031,75.07031,75.07031,75.07031,75.07031,75.07031,75.07031,75.07031,75.07031,75.07031,75.07031,75.07031,75.07031,75.07031,75.07031,75.07031,75.07031,75.07031,75.07031,75.07031,75.07031,75.07031,75.07031,75.07031,75.07031,75.07031,75.07031,75.06641
71.28516,71.27734,71.27734,71.28125,71.28906,71.30469,71.32422,71.35156,71.38281,71.421875,71.46484,71.51172,71.5625,71.62109,71.67969,71.74609,71.81641,71.88672,71.96094,72.03906,72.12109,72.203125,72.28516,72.36719,72.44922,72.53516,72.61719,72.69922,72.77734,72.85547,72.93359,73.00781,73.078125,73.14453,73.20703,73.265625,73.32031,73.36719,73.41406,73.453125,73.484375,73.515625,73.53906,73.55469,73.56641,73.57031,73.57422,73.56641,73.55859,73.54297,73.52344,73.5,73.47266,73.44141,73.40625,73.37109,73.33594,73.296875,73.26172,73.234375,73.21094,73.203125,73.20703,73.22656,73.26172,73.3125,73.38281,73.46875,73.57422,73.69922,73.83984,73.99219,74.16406,74.34766,74.546875,74.75781,74.97656,75.203125,75.4375,75.67578,75.91406,76.16016,76.40234,76.640625,76.87891,77.109375,77.33594,77.55078,77.75781,77.94922,78.12891,78.296875,78.44922,78.58594,78.703125,78.80078,78.88281,78.94531,78.98828,79.01172,79.015625,78.99609,78.96094,78.90234,78.828125,78.734375,78.62109,78.48828,78.33984,78.17578,78.0,77.80469,77.60156,77.38281,77.15625,76.91797,76.671875,76.421875,76.16406,75.90234,75.63672,75.37109,75.10156,74.83203,74.56641,74.296875,74.03125,73.765625,73.50391,73.24609,72.98828,72.73828,72.49609,72.25781,72.03125,71.8125,71.60547,71.41406,71.23047,71.0625,70.91016,70.77344,70.65234,70.546875,70.46094,70.39453,70.34766,70.31641,70.30469,70.3125,70.33984,70.38281,70.44531,70.52734,70.625,70.73828,70.86719,71.00781,71.16406,71.328125,71.50781,71.69531,71.88672,72.08594,72.29297,72.5,72.70703,72.91406,73.12109,73.32422,73.51953,73.71094,73.890625,74.0625,74.22266,74.37109,74.50391,74.62891,74.734375,74.828125,74.90234,74.96875,75.015625,75.05078,75.078125,75.09375,75.09766,75.10156,75.10156,75.10156,75.10156,75.10156,75.10156,75.10156,75.10156,75.10156,75.10156,75.10156,75.10156,75.10156,75.10156,75.10156,75.10156,75.10156,75.10156,75.10156,75.10156,75.10156,75.10156,75.10156,75.10156,75.10156,75.10156,75.10156,75.10156,75.10156,75.10156,75.10156,75.10156,75.10156,75.10156,75.10156,75.10156,75.10156,75.10156,75.10156,75.10156,75.10156,75.10156,75.10156,75.10156,75.10156,75.10156,75.10156,75.10156,75.10156,75.10156,75.10156,75.10156,75.10156,75.10156,75.10156,75.10156,75.10156,75.10156,75.10156,75.10156,75.10156,75.10156,75.10156,75.10156,75.10156,75.10156,75.10156,75.10156,75.09766
70.859375,70.85156,70.84766,70.85156,70.86328,70.87891,70.90234,70.92969,70.96875,71.00781,71.05859,71.109375,71.171875,71.234375,71.30469,71.37891,71.45703,71.53906,71.625,71.71094,71.80078,71.89453,71.98828,72.08203,72.17578,72.26953,72.36328,72.45703,72.546875,72.63672,72.72266,72.80859,72.88672,72.96094,73.03125,73.10156,73.16016,73.21875,73.265625,73.3125,73.35156,73.38281,73.40625,73.42578,73.4375,73.44531,73.44531,73.44141,73.42578,73.41016,73.38672,73.359375,73.328125,73.29297,73.25391,73.21484,73.171875,73.12891,73.08984,73.05469,73.02734,73.01172,73.01172,73.02344,73.05469,73.09766,73.16406,73.24609,73.34375,73.46484,73.59766,73.75,73.91406,74.09766,74.28906,74.49609,74.71484,74.9375,75.171875,75.41016,75.64844,75.89453,76.13672,76.37891,76.62109,76.85547,77.08203,77.30078,77.51172,77.71094,77.89844,78.07422,78.234375,78.37891,78.50391,78.61328,78.703125,78.77734,78.828125,78.86328,78.87891,78.87109,78.84375,78.80078,78.734375,78.65234,78.546875,78.42969,78.28906,78.13672,77.96875,77.78516,77.58984,77.37891,77.16016,76.92969,76.69141,76.44922,76.19531,75.94141,75.68359,75.421875,75.16016,74.89453,74.63281,74.37109,74.109375,73.85156,73.59375,73.33984,73.08984,72.84375,72.60547,72.375,72.15234,71.9375,71.73828,71.546875,71.36719,71.203125,71.05469,70.91797,70.80078,70.69922,70.61719,70.55078,70.5,70.47266,70.46094,70.46875,70.49609,70.53906,70.60156,70.67969,70.77344,70.88281,71.01172,71.14844,71.30078,71.46484,71.640625,71.82031,72.01172,72.20703,72.40625,72.609375,72.8125,73.01953,73.21875,73.41797,73.609375,73.796875,73.97266,74.140625,74.296875,74.44141,74.57422,74.69531,74.796875,74.890625,74.96484,75.02734,75.07422,75.109375,75.13672,75.14844,75.15625,75.16016,75.16016,75.16016,75.16016,75.16016,75.16016,75.16016,75.16016,75.16016,75.16016,75.16016,75.16016,75.16016,75.16016,75.16016,75.16016,75.16016,75.16016,75.16016,75.16016,75.16016,75.16016,75.16016,75.16016,75.16016,75.16016,75.16016,75.16016,75.16016,75.16016,75.16016,75.16016,75.16016,75.16016,75.16016,75.16016,75.16016,75.16016,75.16016,75.16016,75.16016,75.16016,75.16016,75.16016,75.16016,75.16016,75.16016,75.16016,75.16016,75.16016,75.16016,75.16016,75.16016,75.16016,75.16016,75.16016,75.16016,75.16016,75.16016,75.16016,75.16016,75.16016,75.16016,75.16016,75.16016,75.16016,75.16016,75.16016,75.15625
70.44141,70.42969,70.42969,70.43359,70.44531,70.46094,70.48828,70.51953,70.55859,70.60547,70.66016,70.72266,70.78906,70.859375,70.9375,71.01953,71.109375,71.19922,71.296875,71.39453,71.49609,71.60156,71.703125,71.8125,71.91797,72.02344,72.12891,72.234375,72.33594,72.4375,72.53125,72.625,72.71484,72.80078,72.87891,72.953125,73.02344,73.08594,73.14453,73.19141,73.234375,73.26953,73.30078,73.32031,73.33594,73.33984,73.33984,73.33203,73.32031,73.30078,73.27344,73.24219,73.203125,73.16406,73.12109,73.07422,73.02734,72.97656,72.92969,72.890625,72.859375,72.83594,72.828125,72.83594,72.859375,72.89844,72.95703,73.03516,73.12891,73.24219,73.37109,73.515625,73.67969,73.85547,74.046875,74.25,74.46094,74.68359,74.91406,75.15234,75.39453,75.63672,75.88281,76.125,76.36719,76.60547,76.83984,77.0625,77.27734,77.484375,77.67969,77.859375,78.02734,78.17969,78.31641,78.43359,78.53516,78.62109,78.68359,78.72656,78.75391,78.75781,78.74609,78.71094,78.65625,78.58594,78.49609,78.38672,78.25781,78.11719,77.95703,77.78516,77.59766,77.39844,77.1875,76.96484,76.734375,76.5,76.25391,76.00391,75.75391,75.49609,75.24219,74.984375,74.72656,74.47266,74.21484,73.96094,73.71094,73.46094,73.21875,72.98047,72.74609,72.51953,72.30078,72.09375,71.89453,71.70703,71.53516,71.375,71.22656,71.09766,70.98047,70.88281,70.80078,70.734375,70.6875,70.66016,70.64844,70.65625,70.67969,70.72266,70.78516,70.859375,70.953125,71.0625,71.18359,71.32031,71.46875,71.62891,71.80078,71.97656,72.16406,72.35547,72.55078,72.75,72.94922,73.14844,73.34375,73.53906,73.72656,73.90625,74.08203,74.24609,74.39844,74.53906,74.671875,74.78516,74.890625,74.97656,75.05078,75.11328,75.16016,75.19531,75.21875,75.23047,75.23828,75.24219,75.24219,75.24219,75.24219,75.24219,75.24219,75.24219,75.24219,75.24219,75.24219,75.24219,75.24219,75.24219,75.24219,75.24219,75.24219,75.24219,75.24219,75.24219,75.24219,75.24219,75.24219,75.24219,75.24219,75.24219,75.24219,75.24219,75.24219,75.24219,75.24219,75.24219,75.24219,75.24219,75.24219,75.24219,75.24219,75.24219,75.24219,75.24219,75.24219,75.24219,75.24219,75.24219,75.24219,75.24219,75.24219,75.24219,75.24219,75.24219,75.24219,75.24219,75.24219,75.24219,75.24219,75.24219,75.24219,75.24219,75.24219,75.24219,75.24219,75.24219,75.24219,75.24219,75.24219,75.24219,75.24219,75.24219,75.23828,75.23828
70.03516,70.02344,70.01953,70.02344,70.03516,70.05469,70.08594,70.12109,70.16406,70.21875,70.27734,70.34375,70.41797,70.5,70.58594,70.67578,70.77344,70.87891,70.984375,71.09375,71.20703,71.32031,71.4375,71.55859,71.67578,71.79297,71.91016,72.02734,72.140625,72.25391,72.359375,72.46484,72.56641,72.66016,72.75,72.83203,72.90625,72.97656,73.03906,73.09375,73.140625,73.18359,73.21484,73.234375,73.25,73.25781,73.25781,73.25,73.234375,73.21094,73.17969,73.14453,73.10156,73.05859,73.00781,72.953125,72.90234,72.84766,72.79297,72.74609,72.70703,72.67969,72.66406,72.66797,72.68359,72.71875,72.76953,72.83984,72.92578,73.03125,73.15625,73.296875,73.453125,73.625,73.8125,74.01172,74.22266,74.44141,74.671875,74.90625,75.14844,75.390625,75.63672,75.88281,76.125,76.36719,76.60547,76.83203,77.05469,77.265625,77.46875,77.65625,77.83203,77.99219,78.140625,78.26953,78.37891,78.47266,78.546875,78.60547,78.640625,78.66016,78.65625,78.63672,78.59375,78.53516,78.45703,78.359375,78.24609,78.11328,77.96484,77.80469,77.625,77.4375,77.234375,77.02344,76.80078,76.57031,76.33203,76.08984,75.84375,75.59766,75.34766,75.09766,74.84375,74.59766,74.34766,74.09766,73.85547,73.61328,73.375,73.140625,72.91406,72.69141,72.48047,72.27734,72.08203,71.90234,71.73047,71.57422,71.42969,71.30469,71.19141,71.09375,71.01172,70.94922,70.90625,70.87891,70.86719,70.875,70.89844,70.94141,71.0,71.07422,71.16406,71.26953,71.390625,71.52344,71.66797,71.82422,71.98828,72.16406,72.34375,72.53125,72.72266,72.91406,73.109375,73.30469,73.49609,73.68359,73.86719,74.046875,74.21484,74.375,74.52344,74.66406,74.78906,74.90234,75.00391,75.08984,75.16016,75.21875,75.265625,75.30078,75.32422,75.33594,75.34375,75.34766,75.34766,75.34766,75.34766,75.34766,75.34766,75.34766,75.34766,75.34766,75.34766,75.34766,75.34766,75.34766,75.34766,75.34766,75.34766,75.34766,75.34766,75.34766,75.34766,75.34766,75.34766,75.34766,75.34766,75.34766,75.34766,75.34766,75.34766,75.34766,75.34766,75.34766,75.34766,75.34766,75.34766,75.34766,75.34766,75.34766,75.34766,75.34766,75.34766,75.34766,75.34766,75.34766,75.34766,75.34766,75.34766,75.34766,75.34766,75.34766,75.34766,75.34766,75.34766,75.34766,75.34766,75.34766,75.34766,75.34766,75.34766,75.34766,75.34766,75.34766,75.34766,75.34766,75.34766,75.34766,75.34766,75.34766,75.34375,75.34375
69.64453,69.63281,69.625,69.62891,69.64453,69.66406,69.69531,69.734375,69.78516,69.83984,69.90625,69.98047,70.0625,70.15234,70.24609,70.34766,70.45703,70.57031,70.6875,70.80859,70.93359,71.0625,71.19141,71.32031,71.453125,71.58203,71.71484,71.84375,71.96875,72.08984,72.21094,72.32422,72.43359,72.53906,72.63672,72.73047,72.8125,72.890625,72.96094,73.01953,73.07422,73.11719,73.14844,73.17578,73.19141,73.19922,73.19531,73.1875,73.16797,73.140625,73.109375,73.06641,73.02344,72.96875,72.91406,72.85547,72.796875,72.734375,72.67578,72.62109,72.57422,72.54297,72.51953,72.515625,72.52344,72.55078,72.59375,72.66016,72.74219,72.83984,72.95703,73.09375,73.24609,73.41016,73.59375,73.78906,73.99609,74.21094,74.4375,74.671875,74.91016,75.15625,75.40234,75.64844,75.89453,76.140625,76.37891,76.61328,76.83984,77.05859,77.265625,77.46484,77.64844,77.81641,77.97266,78.11328,78.234375,78.33984,78.42578,78.49609,78.54297,78.57422,78.58594,78.57422,78.546875,78.5,78.43359,78.34766,78.24609,78.125,77.99219,77.83984,77.671875,77.49219,77.30078,77.09766,76.88281,76.66406,76.43359,76.19922,75.96094,75.71875,75.47266,75.23047,74.98828,74.74219,74.5,74.26172,74.02344,73.78516,73.55469,73.328125,73.10547,72.890625,72.68359,72.484375,72.296875,72.12109,71.953125,71.80078,71.66406,71.53906,71.42969,71.33594,71.25781,71.19531,71.15234,71.125,71.11328,71.12109,71.14453,71.18359,71.24219,71.31641,71.40234,71.50391,71.62109,71.75,71.89453,72.04297,72.20703,72.375,72.55078,72.734375,72.91797,73.109375,73.296875,73.48828,73.671875,73.85547,74.03516,74.20703,74.375,74.52734,74.67578,74.80859,74.93359,75.04297,75.140625,75.22266,75.29297,75.35156,75.39844,75.42969,75.453125,75.46484,75.47266,75.47266,75.47266,75.47266,75.47266,75.47266,75.47266,75.47266,75.47266,75.47266,75.47266,75.47266,75.47266,75.47266,75.47266,75.47266,75.47266,75.47266,75.47266,75.47266,75.47266,75.47266,75.47266,75.47266,75.47266,75.47266,75.47266,75.47266,75.47266,75.47266,75.47266,75.47266,75.47266,75.47266,75.47266,75.47266,75.47266,75.47266,75.47266,75.47266,75.47266,75.47266,75.47266,75.47266,75.47266,75.47266,75.47266,75.47266,75.47266,75.47266,75.47266,75.47266,75.47266,75.47266,75.47266,75.47266,75.47266,75.47266,75.47266,75.47266,75.47266,75.47266,75.47266,75.47266,75.47266,75.47266,75.47266,75.47266,75.47266,75.46875
69.27344,69.25781,69.25,69.25391,69.265625,69.28906,69.32422,69.36719,69.421875,69.484375,69.55469,69.63672,69.72266,69.82031,69.92578,70.03906,70.15625,70.28125,70.41016,70.54297,70.67969,70.82031,70.96094,71.10547,71.25,71.39453,71.53516,71.67969,71.81641,71.94922,72.08203,72.20703,72.328125,72.44141,72.55078,72.65234,72.74219,72.828125,72.90234,72.96875,73.02734,73.07422,73.109375,73.13672,73.15625,73.16016,73.16016,73.14844,73.125,73.09766,73.05859,73.015625,72.96094,72.90625,72.84375,72.77734,72.71094,72.640625,72.57422,72.515625,72.46094,72.421875,72.39453,72.37891,72.38281,72.40234,72.4375,72.49609,72.57031,72.66406,72.77344,72.90234,73.046875,73.21094,73.38672,73.578125,73.78125,73.99219,74.21875,74.44922,74.6875,74.92969,75.17969,75.42578,75.67578,75.921875,76.16406,76.40234,76.63672,76.859375,77.07422,77.28125,77.47266,77.65234,77.81641,77.96484,78.10156,78.21484,78.31641,78.39453,78.45703,78.5,78.52344,78.52734,78.515625,78.48047,78.42578,78.35547,78.265625,78.15625,78.03125,77.89453,77.73828,77.56641,77.38672,77.19141,76.98828,76.77344,76.55469,76.328125,76.09375,75.859375,75.625,75.38672,75.14844,74.91406,74.67969,74.44531,74.21094,73.984375,73.75781,73.53516,73.32031,73.11328,72.91016,72.71875,72.53516,72.36328,72.203125,72.05469,71.921875,71.80078,71.69141,71.60156,71.52734,71.46484,71.421875,71.39453,71.38672,71.39453,71.41797,71.45703,71.51172,71.58203,71.66797,71.76953,71.88281,72.00781,72.14453,72.29297,72.44922,72.61328,72.78516,72.96094,73.140625,73.32422,73.50781,73.69141,73.875,74.05078,74.22656,74.39453,74.55469,74.70703,74.84766,74.97656,75.09766,75.203125,75.30078,75.37891,75.44922,75.50391,75.546875,75.58203,75.60156,75.61719,75.62109,75.625,75.625,75.625,75.625,75.625,75.625,75.625,75.625,75.625,75.625,75.625,75.625,75.625,75.625,75.625,75.625,75.625,75.625,75.625,75.625,75.625,75.625,75.625,75.625,75.625,75.625,75.625,75.625,75.625,75.625,75.625,75.625,75.625,75.625,75.625,75.625,75.625,75.625,75.625,75.625,75.625,75.625,75.625,75.625,75.625,75.625,75.625,75.625,75.625,75.625,75.625,75.625,75.625,75.625,75.625,75.625,75.625,75.625,75.625,75.625,75.625,75.625,75.625,75.625,75.625,75.625,75.625,75.625,75.62109
68.91797,68.90234,68.89453,68.89453,68.91016,68.93359,68.97266,69.01953,69.07422,69.14453,69.22266,69.30859,69.40625,69.51172,69.625,69.74609,69.875,70.01172,70.15234,70.296875,70.44922,70.60156,70.75391,70.91406,71.07031,71.22656,71.38281,71.53516,71.6875,71.83203,71.97656,72.11328,72.24609,72.37109,72.48828,72.59766,72.69531,72.78906,72.87109,72.94141,73.00391,73.05469,73.09375,73.125,73.140625,73.14844,73.14453,73.13281,73.109375,73.07422,73.03516,72.984375,72.92578,72.86328,72.79297,72.72266,72.64844,72.57031,72.49609,72.42969,72.37109,72.32031,72.28516,72.265625,72.25781,72.26953,72.30078,72.34766,72.41797,72.50391,72.60547,72.72656,72.86719,73.02344,73.19531,73.37891,73.578125,73.78906,74.00781,74.23828,74.47656,74.71875,74.96484,75.21484,75.46484,75.71484,75.96094,76.203125,76.44141,76.671875,76.89453,77.10547,77.30859,77.49609,77.671875,77.83203,77.97656,78.10547,78.21484,78.30859,78.38281,78.44141,78.47656,78.49609,78.49219,78.47266,78.43359,78.375,78.296875,78.203125,78.08984,77.96094,77.82031,77.66016,77.48828,77.30469,77.109375,76.90625,76.69141,76.47266,76.25,76.02344,75.79297,75.5625,75.33203,75.10547,74.875,74.64844,74.42578,74.203125,73.984375,73.76953,73.5625,73.359375,73.16406,72.97656,72.80078,72.63281,72.47656,72.33203,72.203125,72.08594,71.98047,71.89453,71.82031,71.76172,71.71875,71.69531,71.68359,71.69141,71.71484,71.75391,71.80469,71.875,71.95703,72.05469,72.16406,72.28516,72.41797,72.5625,72.71484,72.875,73.03906,73.21094,73.38672,73.5625,73.74219,73.921875,74.09766,74.26953,74.4375,74.60156,74.75391,74.90234,75.03906,75.16797,75.28125,75.38672,75.47656,75.55859,75.625,75.67578,75.71875,75.75,75.77344,75.78516,75.78906,75.79297,75.79297,75.79297,75.79297,75.79297,75.79297,75.79297,75.79297,75.79297,75.79297,75.79297,75.79297,75.79297,75.79297,75.79297,75.79297,75.79297,75.79297,75.79297,75.79297,75.79297,75.79297,75.79297,75.79297,75.79297,75.79297,75.79297,75.79297,75.79297,75.79297,75.79297,75.79297,75.79297,75.79297,75.79297,75.79297,75.79297,75.79297,75.79297,75.79297,75.79297,75.79297,75.79297,75.79297,75.79297,75.79297,75.79297,75.79297,75.79297,75.79297,75.79297,75.79297,75.79297,75.79297,75.79297,75.79297,75.79297,75.79297,75.79297,75.79297,75.79297,75.79297,75.79297,75.79297,75.79297,75.79297,75.79297,75.79297,75.78906
68.58594,68.56641,68.55859,68.5625,68.57422,68.60156,68.640625,68.69141,68.75,68.82422,68.91016,69.00391,69.109375,69.22266,69.34766,69.48047,69.61719,69.765625,69.91797,70.07422,70.23828,70.40234,70.57031,70.74219,70.91016,71.08203,71.25,71.41797,71.58203,71.73828,71.89453,72.04297,72.1875,72.32031,72.44922,72.56641,72.67578,72.77344,72.86328,72.94141,73.00391,73.05859,73.10156,73.13281,73.15234,73.16016,73.15625,73.140625,73.11328,73.078125,73.03125,72.97656,72.91016,72.83984,72.765625,72.6875,72.60547,72.51953,72.44141,72.36328,72.296875,72.24219,72.19531,72.16797,72.15625,72.16016,72.17969,72.22266,72.28125,72.359375,72.45703,72.57031,72.703125,72.85156,73.015625,73.19922,73.390625,73.59766,73.81641,74.04297,74.27734,74.51953,74.765625,75.015625,75.265625,75.51953,75.76953,76.015625,76.25781,76.49609,76.72266,76.94531,77.15234,77.35156,77.53516,77.70703,77.86328,78.00391,78.12891,78.234375,78.32031,78.390625,78.44141,78.47266,78.484375,78.48047,78.453125,78.40625,78.34375,78.26172,78.16406,78.046875,77.91406,77.765625,77.60547,77.43359,77.24609,77.05078,76.84766,76.63672,76.421875,76.203125,75.98047,75.75781,75.53516,75.3125,75.09375,74.875,74.65625,74.44141,74.23047,74.02344,73.82031,73.625,73.4375,73.25781,73.08594,72.92578,72.77344,72.63281,72.50781,72.39453,72.29297,72.20703,72.13672,72.08203,72.03906,72.015625,72.00781,72.01172,72.03516,72.07031,72.125,72.19141,72.26953,72.36328,72.47266,72.58984,72.71875,72.85547,73.00391,73.15625,73.31641,73.484375,73.65234,73.82422,73.99609,74.16797,74.33984,74.50781,74.66797,74.828125,74.97656,75.11719,75.25,75.375,75.484375,75.58594,75.67578,75.75,75.81641,75.86719,75.91016,75.94141,75.96094,75.97266,75.97656,75.98047,75.98047,75.98047,75.98047,75.98047,75.98047,75.98047,75.98047,75.98047,75.98047,75.98047,75.98047,75.98047,75.98047,75.98047,75.98047,75.98047,75.98047,75.98047,75.98047,75.98047,75.98047,75.98047,75.98047,75.98047,75.98047,75.98047,75.98047,75.98047,75.98047,75.98047,75.98047,75.98047,75.98047,75.98047,75.98047,75.98047,75.98047,75.98047,75.98047,75.98047,75.98047,75.98047,75.98047,75.98047,75.98047,75.98047,75.98047,75.98047,75.98047,75.98047,75.98047,75.98047,75.98047,75.98047,75.98047,75.98047,75.98047,75.98047,75.98047,75.98047,75.98047,75.98047,75.98047,75.98047,75.98047,75.98047,75.98047,75.97656
68.28125,68.25781,68.24609,68.25,68.26172,68.29297,68.33203,68.38672,68.44922,68.52734,68.62109,68.72266,68.83594,68.95703,69.08984,69.234375,69.38281,69.54297,69.70703,69.875,70.05078,70.23047,70.41016,70.59375,70.77734,70.96094,71.140625,71.32031,71.5,71.671875,71.83594,71.99609,72.15234,72.296875,72.43359,72.55859,72.67578,72.78516,72.87891,72.96094,73.03125,73.08984,73.13672,73.16797,73.1875,73.19531,73.19141,73.171875,73.140625,73.10156,73.05078,72.98828,72.921875,72.84375,72.76172,72.671875,72.58203,72.49219,72.40234,72.32031,72.24609,72.17969,72.12891,72.08984,72.07031,72.06641,72.078125,72.11328,72.16406,72.234375,72.32031,72.42969,72.55469,72.69531,72.85547,73.03125,73.21875,73.421875,73.63281,73.859375,74.08984,74.33203,74.578125,74.828125,75.08203,75.33594,75.58984,75.83984,76.08594,76.328125,76.56641,76.79297,77.01172,77.21875,77.41406,77.59375,77.76172,77.91406,78.05078,78.16797,78.26953,78.35547,78.41797,78.46484,78.48828,78.49609,78.484375,78.453125,78.40234,78.33594,78.25,78.14453,78.02344,77.890625,77.73828,77.57422,77.40234,77.21484,77.01953,76.81641,76.609375,76.39844,76.18359,75.96875,75.75391,75.54297,75.328125,75.11719,74.90625,74.69922,74.49609,74.296875,74.10156,73.91016,73.73047,73.55469,73.390625,73.234375,73.08984,72.953125,72.83203,72.72266,72.625,72.54297,72.47656,72.421875,72.38281,72.359375,72.34766,72.35547,72.375,72.41406,72.46094,72.52734,72.60547,72.69531,72.796875,72.91016,73.03516,73.16797,73.30859,73.46094,73.61328,73.77344,73.9375,74.10547,74.26953,74.4375,74.60156,74.76172,74.91797,75.07031,75.21484,75.35156,75.48047,75.59766,75.70703,75.80469,75.890625,75.96484,76.02734,76.078125,76.11719,76.14453,76.16406,76.17578,76.18359,76.18359,76.18359,76.18359,76.18359,76.18359,76.18359,76.18359,76.18359,76.18359,76.18359,76.18359,76.18359,76.18359,76.18359,76.18359,76.18359,76.18359,76.18359,76.18359,76.18359,76.18359,76.18359,76.18359,76.18359,76.18359,76.18359,76.18359,76.18359,76.18359,76.18359,76.18359,76.18359,76.18359,76.18359,76.18359,76.18359,76.18359,76.18359,76.18359,76.18359,76.18359,76.18359,76.18359,76.18359,76.18359,76.18359,76.18359,76.18359,76.18359,76.18359,76.18359,76.18359,76.18359,76.18359,76.18359,76.18359,76.18359,76.18359,76.18359,76.18359,76.18359,76.18359,76.18359,76.18359,76.18359,76.18359,76.18359,76.18359,76.17969
68.0,67.97266,67.96094,67.96094,67.97656,68.00781,68.05078,68.10547,68.17578,68.25781,68.35547,68.46484,68.58594,68.71875,68.859375,69.01172,69.171875,69.34375,69.51953,69.69922,69.88672,70.078125,70.27344,70.46875,70.66797,70.86328,71.05859,71.25,71.44141,71.625,71.80469,71.97656,72.140625,72.296875,72.44141,72.578125,72.703125,72.81641,72.91797,73.00781,73.08203,73.14453,73.19141,73.22656,73.24609,73.25391,73.24609,73.22656,73.19531,73.14844,73.09375,73.02734,72.94922,72.86719,72.77734,72.68359,72.58594,72.484375,72.390625,72.296875,72.21484,72.140625,72.08203,72.03516,72.00391,71.99219,71.99609,72.01953,72.0625,72.125,72.20703,72.30469,72.421875,72.55859,72.71094,72.87891,73.0625,73.25781,73.46875,73.6875,73.91797,74.15625,74.40234,74.65234,74.90625,75.16016,75.41797,75.671875,75.92578,76.17578,76.41797,76.65234,76.87891,77.09375,77.30078,77.49219,77.671875,77.83594,77.984375,78.11328,78.23047,78.328125,78.40625,78.46484,78.50391,78.52734,78.52734,78.51172,78.47266,78.41797,78.34375,78.25391,78.14844,78.02344,77.88281,77.73047,77.56641,77.390625,77.20703,77.01172,76.8125,76.609375,76.40234,76.19531,75.98828,75.78516,75.578125,75.375,75.171875,74.97266,74.77734,74.58594,74.39844,74.21484,74.03906,73.87109,73.71484,73.5625,73.421875,73.29297,73.17578,73.07031,72.97656,72.89844,72.83203,72.78125,72.74219,72.71875,72.71094,72.71875,72.73828,72.77344,72.82031,72.88281,72.95703,73.04297,73.140625,73.25,73.37109,73.5,73.63672,73.78125,73.92969,74.08203,74.24219,74.39844,74.55859,74.71875,74.87891,75.03516,75.18359,75.33203,75.46875,75.60156,75.72656,75.83984,75.94531,76.03906,76.12109,76.19141,76.25,76.30078,76.33594,76.36328,76.38281,76.39453,76.40234,76.40234,76.40234,76.40234,76.40234,76.40234,76.40234,76.40234,76.40234,76.40234,76.40234,76.40234,76.40234,76.40234,76.40234,76.40234,76.40234,76.40234,76.40234,76.40234,76.40234,76.40234,76.40234,76.40234,76.40234,76.40234,76.40234,76.40234,76.40234,76.40234,76.40234,76.40234,76.40234,76.40234,76.40234,76.40234,76.40234,76.40234,76.40234,76.40234,76.40234,76.40234,76.40234,76.40234,76.40234,76.40234,76.40234,76.40234,76.40234,76.40234,76.40234,76.40234,76.40234,76.40234,76.40234,76.40234,76.40234,76.40234,76.40234,76.40234,76.40234,76.40234,76.40234,76.40234,76.40234,76.40234,76.40234,76.40234,76.40234,76.39844
67.74609,67.71875,67.703125,67.703125,67.71875,67.75,67.79297,67.85547,67.92969,68.015625,68.11719,68.234375,68.36328,68.50391,68.65625,68.81641,68.98828,69.16797,69.359375,69.55078,69.75391,69.95703,70.16406,70.375,70.58203,70.79297,71.0,71.20703,71.41016,71.60547,71.796875,71.98047,72.15625,72.32031,72.47656,72.62109,72.75391,72.875,72.984375,73.078125,73.15625,73.22266,73.27344,73.30859,73.328125,73.33594,73.328125,73.30469,73.26953,73.21875,73.16016,73.08594,73.00391,72.91406,72.81641,72.71484,72.60547,72.5,72.39453,72.296875,72.203125,72.12109,72.05078,71.99609,71.95703,71.9375,71.93359,71.94922,71.98047,72.03516,72.10547,72.19922,72.30859,72.43359,72.58203,72.74219,72.91797,73.109375,73.31641,73.53125,73.75781,73.99609,74.23828,74.48828,74.74609,75.0,75.26172,75.51953,75.77734,76.02734,76.27734,76.51953,76.75391,76.98047,77.19531,77.39844,77.58984,77.765625,77.92578,78.07031,78.19922,78.30859,78.40234,78.47266,78.53125,78.56641,78.58203,78.578125,78.55469,78.51172,78.453125,78.375,78.28125,78.16797,78.04297,77.89844,77.74609,77.578125,77.40234,77.21875,77.02734,76.83203,76.63281,76.4375,76.23828,76.03906,75.84375,75.64844,75.453125,75.26172,75.07422,74.88672,74.70703,74.53516,74.36719,74.203125,74.05078,73.90625,73.77344,73.64844,73.53516,73.43359,73.34375,73.26953,73.20703,73.15625,73.12109,73.09766,73.08984,73.09375,73.11328,73.14844,73.19531,73.25391,73.32422,73.41016,73.50391,73.609375,73.72266,73.84766,73.97656,74.11719,74.25781,74.40625,74.55859,74.71094,74.86328,75.01953,75.171875,75.32031,75.46484,75.60547,75.73828,75.86719,75.984375,76.09375,76.19531,76.28516,76.36328,76.42969,76.48828,76.53516,76.57031,76.59766,76.61719,76.62891,76.63281,76.63281,76.63281,76.63281,76.63281,76.63281,76.63281,76.63281,76.63281,76.63281,76.63281,76.63281,76.63281,76.63281,76.63281,76.63281,76.63281,76.63281,76.63281,76.63281,76.63281,76.63281,76.63281,76.63281,76.63281,76.63281,76.63281,76.63281,76.63281,76.63281,76.63281,76.63281,76.63281,76.63281,76.63281,76.63281,76.63281,76.63281,76.63281,76.63281,76.63281,76.63281,76.63281,76.63281,76.63281,76.63281,76.63281,76.63281,76.63281,76.63281,76.63281,76.63281,76.63281,76.63281,76.63281,76.63281,76.63281,76.63281,76.63281,76.63281,76.63281,76.63281,76.63281,76.63281,76.63281,76.63281,76.63281,76.63281,76.63281,76.63281
67.52344,67.49219,67.47656,67.47656,67.49219,67.51953,67.56641,67.62891,67.70703,67.80078,67.91016,68.03125,68.16797,68.31641,68.47656,68.65234,68.83203,69.02344,69.22266,69.42969,69.64453,69.859375,70.08203,70.30078,70.52734,70.75,70.96875,71.1875,71.40234,71.61328,71.8125,72.00781,72.19531,72.37109,72.53516,72.69141,72.83203,72.96094,73.07422,73.171875,73.25781,73.32422,73.37891,73.41406,73.4375,73.44141,73.42969,73.40625,73.36719,73.3125,73.24609,73.16797,73.078125,72.98047,72.875,72.765625,72.65234,72.53516,72.421875,72.3125,72.21094,72.12109,72.04297,71.98047,71.93359,71.90234,71.88672,71.89453,71.91797,71.96094,72.02734,72.109375,72.21094,72.328125,72.46875,72.62109,72.79297,72.98047,73.17969,73.390625,73.61328,73.84766,74.08984,74.33984,74.59375,74.85156,75.11328,75.375,75.63672,75.89453,76.14844,76.39844,76.640625,76.875,77.10156,77.3125,77.515625,77.703125,77.875,78.03516,78.17578,78.30078,78.40625,78.49219,78.5625,78.61328,78.64453,78.65234,78.64453,78.61719,78.57031,78.50391,78.421875,78.32422,78.20703,78.078125,77.93359,77.77734,77.609375,77.43359,77.25391,77.06641,76.875,76.6875,76.49609,76.30859,76.12109,75.92969,75.74609,75.5625,75.38281,75.203125,75.03125,74.86328,74.703125,74.55078,74.40234,74.265625,74.13672,74.015625,73.91016,73.8125,73.72656,73.65234,73.59375,73.546875,73.51172,73.48828,73.48047,73.48828,73.50391,73.53906,73.58203,73.63672,73.70703,73.78906,73.87891,73.98047,74.08984,74.20703,74.33203,74.46484,74.60156,74.74219,74.88672,75.03516,75.18359,75.328125,75.47656,75.61719,75.75781,75.890625,76.01953,76.140625,76.25391,76.359375,76.453125,76.53906,76.61719,76.68359,76.73828,76.78125,76.81641,76.84375,76.859375,76.87109,76.875,76.875,76.875,76.875,76.875,76.875,76.875,76.875,76.875,76.875,76.875,76.875,76.875,76.875,76.875,76.875,76.875,76.875,76.875,76.875,76.875,76.875,76.875,76.875,76.875,76.875,76.875,76.875,76.875,76.875,76.875,76.875,76.875,76.875,76.875,76.875,76.875,76.875,76.875,76.875,76.875,76.875,76.875,76.875,76.875,76.875,76.875,76.875,76.875,76.875,76.875,76.875,76.875,76.875,76.875,76.875,76.875,76.875,76.875,76.875,76.875,76.875,76.875,76.875,76.875,76.875,76.875,76.875,76.875,76.875
67.33203,67.296875,67.27734,67.27734,67.29297,67.32422,67.37109,67.4375,67.51953,67.61719,67.73047,67.859375,68.00391,68.16016,68.33203,68.51172,68.703125,68.90625,69.11719,69.33594,69.5625,69.78906,70.02344,70.25781,70.49609,70.73047,70.96484,71.19531,71.421875,71.64453,71.859375,72.0625,72.26172,72.44531,72.62109,72.78125,72.93359,73.06641,73.1875,73.28906,73.37891,73.44922,73.50391,73.54297,73.56641,73.57031,73.55859,73.52734,73.484375,73.42578,73.35547,73.26953,73.17578,73.07031,72.95703,72.83594,72.71484,72.58984,72.46875,72.35156,72.24219,72.14453,72.05469,71.984375,71.92578,71.88672,71.86328,71.859375,71.875,71.91016,71.96094,72.03516,72.12891,72.24219,72.37109,72.51953,72.68359,72.86328,73.05469,73.265625,73.484375,73.71484,73.953125,74.203125,74.45703,74.71484,74.98047,75.24219,75.50781,75.77344,76.03125,76.28906,76.53906,76.78125,77.015625,77.23828,77.44922,77.64844,77.83594,78.00391,78.16016,78.296875,78.41797,78.51953,78.60156,78.66797,78.71094,78.73828,78.74219,78.73047,78.69531,78.64453,78.57422,78.484375,78.38281,78.26172,78.12891,77.984375,77.828125,77.66016,77.48828,77.30859,77.12891,76.94531,76.765625,76.58594,76.40625,76.22656,76.046875,75.87109,75.69922,75.53125,75.36719,75.20703,75.05078,74.90625,74.765625,74.63281,74.51172,74.39844,74.29297,74.19922,74.12109,74.05078,73.99219,73.94531,73.91406,73.890625,73.88672,73.890625,73.90625,73.9375,73.98047,74.03516,74.10156,74.17578,74.265625,74.359375,74.46484,74.578125,74.69922,74.82422,74.95703,75.08984,75.23047,75.36719,75.50781,75.64844,75.78906,75.92578,76.05859,76.1875,76.30859,76.42578,76.53516,76.63281,76.72656,76.80859,76.87891,76.94141,76.99609,77.03906,77.07031,77.09375,77.11328,77.12109,77.125,77.12891,77.12891,77.12891,77.12891,77.12891,77.12891,77.12891,77.12891,77.12891,77.12891,77.12891,77.12891,77.12891,77.12891,77.12891,77.12891,77.12891,77.12891,77.12891,77.12891,77.12891,77.12891,77.12891,77.12891,77.12891,77.12891,77.12891,77.12891,77.12891,77.12891,77.12891,77.12891,77.12891,77.12891,77.12891,77.12891,77.12891,77.12891,77.12891,77.12891,77.12891,77.12891,77.12891,77.12891,77.12891,77.12891,77.12891,77.12891,77.12891,77.12891,77.12891,77.12891,77.12891,77.12891,77.12891,77.12891,77.12891,77.12891,77.12891,77.12891,77.12891,77.12891,77.12891,77.12891,77.12891,77.12891,77.12891,77.12891,77.125
67.171875,67.13672,67.11328,67.109375,67.125,67.15625,67.20703,67.27344,67.359375,67.46094,67.58203,67.71875,67.86719,68.03125,68.21094,68.40234,68.60547,68.81641,69.03906,69.26953,69.50781,69.75,69.99219,70.24219,70.49219,70.73828,70.984375,71.23047,71.46875,71.69922,71.92578,72.140625,72.34766,72.54297,72.73047,72.89844,73.05469,73.19531,73.32031,73.42969,73.52344,73.59766,73.65625,73.69531,73.71484,73.71875,73.703125,73.671875,73.625,73.5625,73.484375,73.39453,73.29297,73.17969,73.05859,72.92969,72.80078,72.66797,72.53516,72.41016,72.29297,72.18359,72.08984,72.00391,71.9375,71.88672,71.85547,71.84375,71.84766,71.87109,71.91797,71.98047,72.06641,72.16797,72.28906,72.42969,72.58594,72.76172,72.94922,73.15234,73.36719,73.59375,73.83203,74.078125,74.33203,74.58984,74.85547,75.12109,75.390625,75.66016,75.92578,76.1875,76.44531,76.69531,76.9375,77.171875,77.39453,77.60547,77.80078,77.984375,78.15234,78.30469,78.4375,78.55469,78.64844,78.73047,78.78906,78.828125,78.84766,78.84766,78.828125,78.78906,78.73047,78.65625,78.5625,78.453125,78.33203,78.19531,78.05078,77.89453,77.72656,77.55859,77.38672,77.21484,77.04297,76.87109,76.69922,76.52734,76.359375,76.19141,76.02734,75.86719,75.70703,75.55469,75.41016,75.26953,75.13672,75.01172,74.89453,74.78516,74.6875,74.59766,74.51953,74.453125,74.39844,74.35547,74.32422,74.30469,74.296875,74.30078,74.32031,74.34766,74.390625,74.44141,74.50391,74.57422,74.66016,74.75,74.85156,74.95703,75.07031,75.19141,75.31641,75.44531,75.578125,75.71094,75.84375,75.98047,76.11328,76.24219,76.36719,76.48828,76.60547,76.71875,76.82031,76.91406,77.00391,77.08203,77.14844,77.21094,77.25781,77.30078,77.33203,77.35547,77.37109,77.37891,77.38672,77.38672,77.38672,77.38672,77.38672,77.38672,77.38672,77.38672,77.38672,77.38672,77.38672,77.38672,77.38672,77.38672,77.38672,77.38672,77.38672,77.38672,77.38672,77.38672,77.38672,77.38672,77.38672,77.38672,77.38672,77.38672,77.38672,77.38672,77.38672,77.38672,77.38672,77.38672,77.38672,77.38672,77.38672,77.38672,77.38672,77.38672,77.38672,77.38672,77.38672,77.38672,77.38672,77.38672,77.38672,77.38672,77.38672,77.38672,77.38672,77.38672,77.38672,77.38672,77.38672,77.38672,77.38672,77.38672,77.38672,77.38672,77.38672,77.38672,77.38672,77.38672,77.38672,77.38672,77.38672,77.38672,77.38672,77.38672,77.38672,77.38281
67.046875,67.00391,66.98047,66.97656,66.99219,67.02344,67.07422,67.14453,67.234375,67.33984,67.46484,67.60547,67.76172,67.9375,68.12109,68.32422,68.53516,68.75781,68.99219,69.234375,69.48047,69.734375,69.99219,70.25391,70.51172,70.77344,71.03125,71.28906,71.53906,71.78125,72.01953,72.24609,72.46094,72.66797,72.859375,73.03906,73.203125,73.34766,73.48047,73.59375,73.69141,73.765625,73.82422,73.86719,73.88672,73.88672,73.87109,73.83984,73.78516,73.71875,73.63672,73.53906,73.42969,73.30859,73.17969,73.04297,72.90625,72.76172,72.625,72.48828,72.36328,72.24609,72.140625,72.046875,71.96875,71.91016,71.86719,71.84375,71.83984,71.85547,71.890625,71.94531,72.01953,72.11328,72.22656,72.359375,72.50781,72.671875,72.85547,73.05469,73.265625,73.48828,73.72266,73.96484,74.21875,74.48047,74.74219,75.01172,75.28516,75.55469,75.82422,76.09375,76.359375,76.61719,76.86719,77.109375,77.34375,77.56641,77.77344,77.96875,78.14844,78.3125,78.46094,78.58984,78.703125,78.796875,78.86719,78.921875,78.953125,78.96875,78.96094,78.9375,78.890625,78.828125,78.74609,78.65234,78.53906,78.41406,78.27734,78.12891,77.97266,77.8125,77.64844,77.484375,77.32422,77.16016,76.99609,76.83203,76.671875,76.515625,76.359375,76.20703,76.05469,75.91016,75.77344,75.640625,75.51172,75.39453,75.28125,75.17969,75.08594,75.00391,74.92969,74.86328,74.8125,74.76953,74.74219,74.72266,74.71484,74.72266,74.73828,74.765625,74.80469,74.85156,74.91016,74.98047,75.05859,75.14453,75.24219,75.34375,75.453125,75.56641,75.68359,75.80859,75.93359,76.05859,76.1875,76.3125,76.4375,76.5625,76.68359,76.796875,76.91016,77.015625,77.11328,77.203125,77.28516,77.359375,77.42578,77.48047,77.53125,77.56641,77.59766,77.62109,77.63672,77.64453,77.64844,77.64844,77.64844,77.64844,77.64844,77.64844,77.64844,77.64844,77.64844,77.64844,77.64844,77.64844,77.64844,77.64844,77.64844,77.64844,77.64844,77.64844,77.64844,77.64844,77.64844,77.64844,77.64844,77.64844,77.64844,77.64844,77.64844,77.64844,77.64844,77.64844,77.64844,77.64844,77.64844,77.64844,77.64844,77.64844,77.64844,77.64844,77.64844,77.64844,77.64844,77.64844,77.64844,77.64844,77.64844,77.64844,77.64844,77.64844,77.64844,77.64844,77.64844,77.64844,77.64844,77.64844,77.64844,77.64844,77.64844,77.64844,77.64844,77.64844,77.64844,77.64844,77.64844,77.64844,77.64844,77.64844,77.64844,77.64844,77.64844,77.64844
66.953125,66.91016,66.88281,66.87891,66.890625,66.921875,66.97656,67.046875,67.140625,67.25,67.37891,67.52734,67.69141,67.87109,68.06641,68.27344,68.49609,68.73047,68.97266,69.22266,69.484375,69.75,70.015625,70.28906,70.5625,70.83594,71.10547,71.37109,71.63281,71.88672,72.13672,72.37109,72.59766,72.8125,73.015625,73.19922,73.37109,73.52344,73.66016,73.77734,73.87891,73.95703,74.015625,74.05859,74.078125,74.078125,74.05859,74.02344,73.96875,73.89453,73.80469,73.703125,73.58594,73.45703,73.32031,73.17578,73.02734,72.87891,72.73047,72.58594,72.44922,72.32422,72.20703,72.10547,72.01953,71.94922,71.89844,71.86328,71.84766,71.85547,71.87891,71.921875,71.98828,72.07422,72.17969,72.30078,72.44141,72.60156,72.77734,72.96875,73.17578,73.39453,73.625,73.86719,74.11719,74.375,74.640625,74.91406,75.1875,75.46094,75.734375,76.00781,76.28125,76.546875,76.80469,77.05859,77.30078,77.53125,77.75391,77.96094,78.15234,78.328125,78.49219,78.63281,78.75781,78.86328,78.953125,79.01953,79.06641,79.09375,79.10156,79.08594,79.05469,79.00391,78.9375,78.85156,78.75,78.63281,78.50781,78.36719,78.22266,78.07031,77.91797,77.76172,77.60547,77.44922,77.296875,77.14453,76.99219,76.83984,76.69141,76.546875,76.40625,76.26953,76.140625,76.01172,75.89453,75.78125,75.67578,75.578125,75.48828,75.41016,75.33984,75.28125,75.23047,75.19141,75.16406,75.14453,75.13672,75.14453,75.16016,75.18359,75.21875,75.265625,75.32422,75.390625,75.46484,75.546875,75.63672,75.73047,75.83594,75.94141,76.05469,76.171875,76.28906,76.41016,76.53125,76.65234,76.76953,76.88672,77.0,77.109375,77.21484,77.3125,77.40625,77.49219,77.57031,77.640625,77.703125,77.75781,77.80078,77.83984,77.86719,77.88672,77.90234,77.91016,77.91406,77.91797,77.91797,77.91797,77.91797,77.91797,77.91797,77.91797,77.91797,77.91797,77.91797,77.91797,77.91797,77.91797,77.91797,77.91797,77.91797,77.91797,77.91797,77.91797,77.91797,77.91797,77.91797,77.91797,77.91797,77.91797,77.91797,77.91797,77.91797,77.91797,77.91797,77.91797,77.91797,77.91797,77.91797,77.91797,77.91797,77.91797,77.91797,77.91797,77.91797,77.91797,77.91797,77.91797,77.91797,77.91797,77.91797,77.91797,77.91797,77.91797,77.91797,77.91797,77.91797,77.91797,77.91797,77.91797,77.91797,77.91797,77.91797,77.91797,77.91797,77.91797,77.91797,77.91797,77.91797,77.91797,77.91797,77.91797,77.91797,77.91406
66.89844,66.84766,66.82031,66.8125,66.82422,66.85547,66.91016,66.984375,67.078125,67.19141,67.32422,67.47656,67.64844,67.83594,68.03906,68.25391,68.484375,68.72656,68.98047,69.24219,69.515625,69.78906,70.07031,70.35156,70.63672,70.921875,71.203125,71.48047,71.75391,72.01953,72.27734,72.52344,72.75781,72.98047,73.1875,73.38281,73.55859,73.71875,73.859375,73.98047,74.08594,74.16406,74.22656,74.26953,74.28906,74.28516,74.265625,74.22656,74.16406,74.08594,73.99219,73.88281,73.75781,73.625,73.47656,73.32422,73.16797,73.01172,72.85156,72.69922,72.55469,72.41797,72.29297,72.18359,72.08594,72.00781,71.94531,71.89844,71.875,71.87109,71.88281,71.91797,71.97266,72.05078,72.14453,72.25781,72.39453,72.54297,72.71094,72.89844,73.09766,73.3125,73.53906,73.77734,74.02734,74.28516,74.55078,74.82422,75.09766,75.375,75.65625,75.93359,76.21094,76.484375,76.75,77.01172,77.26172,77.50391,77.73828,77.953125,78.16016,78.34766,78.52344,78.67969,78.81641,78.9375,79.03906,79.11719,79.17969,79.21875,79.23828,79.23828,79.21875,79.17969,79.125,79.05078,78.96094,78.85547,78.73828,78.609375,78.47266,78.328125,78.18359,78.03516,77.890625,77.74609,77.59766,77.453125,77.30859,77.16797,77.02734,76.890625,76.75781,76.62891,76.50391,76.38672,76.27344,76.16797,76.06641,75.97656,75.890625,75.81641,75.75,75.69531,75.64844,75.609375,75.58594,75.56641,75.5625,75.56641,75.58203,75.60547,75.640625,75.68359,75.734375,75.796875,75.86719,75.94531,76.03125,76.12109,76.21875,76.32031,76.42578,76.53516,76.64844,76.76172,76.875,76.98828,77.10156,77.21094,77.32031,77.421875,77.51953,77.61328,77.703125,77.78516,77.859375,77.92578,77.984375,78.03125,78.07422,78.109375,78.13672,78.15625,78.171875,78.17969,78.18359,78.18359,78.18359,78.18359,78.18359,78.18359,78.18359,78.18359,78.18359,78.18359,78.18359,78.18359,78.18359,78.18359,78.18359,78.18359,78.18359,78.18359,78.18359,78.18359,78.18359,78.18359,78.18359,78.18359,78.18359,78.18359,78.18359,78.18359,78.18359,78.18359,78.18359,78.18359,78.18359,78.18359,78.18359,78.18359,78.18359,78.18359,78.18359,78.18359,78.18359,78.18359,78.18359,78.18359,78.18359,78.18359,78.18359,78.18359,78.18359,78.18359,78.18359,78.18359,78.18359,78.18359,78.18359,78.18359,78.18359,78.18359,78.18359,78.18359,78.18359,78.18359,78.18359,78.18359,78.18359,78.18359,78.18359,78.18359,78.18359,78.17969
66.875,66.82422,66.78906,66.78125,66.78906,66.82422,66.875,66.953125,67.05078,67.16797,67.30469,67.46094,67.63672,67.83203,68.04297,68.265625,68.50391,68.75781,69.01953,69.29297,69.57031,69.859375,70.14844,70.44141,70.73828,71.03125,71.32422,71.61328,71.89844,72.171875,72.4375,72.69531,72.9375,73.16797,73.38672,73.58594,73.76953,73.93359,74.078125,74.203125,74.30859,74.39453,74.45703,74.49609,74.515625,74.51172,74.48828,74.44531,74.37891,74.296875,74.19531,74.08203,73.94922,73.80469,73.65234,73.49219,73.32422,73.16016,72.99219,72.83203,72.67578,72.53125,72.39844,72.27734,72.171875,72.08203,72.00781,71.953125,71.91797,71.90234,71.90625,71.92969,71.97656,72.04297,72.125,72.23047,72.35547,72.5,72.66016,72.83984,73.03516,73.24219,73.46484,73.703125,73.94922,74.20703,74.46875,74.74219,75.01953,75.30078,75.58203,75.86328,76.14844,76.42578,76.69922,76.96875,77.23047,77.48047,77.72266,77.953125,78.16797,78.37109,78.55859,78.72656,78.87891,79.01172,79.125,79.21875,79.29297,79.34766,79.37891,79.390625,79.38281,79.359375,79.3125,79.25,79.16797,79.07422,78.96875,78.84766,78.71875,78.58594,78.44922,78.3125,78.171875,78.03516,77.89844,77.76172,77.62891,77.49219,77.36328,77.234375,77.109375,76.98828,76.87109,76.75781,76.65234,76.55078,76.45703,76.37109,76.29297,76.22266,76.16016,76.109375,76.0625,76.02734,76.00391,75.98828,75.984375,75.98828,76.0,76.02344,76.05469,76.09766,76.14844,76.203125,76.26953,76.34375,76.421875,76.50781,76.60156,76.69531,76.796875,76.89844,77.00391,77.109375,77.21875,77.32422,77.42969,77.53516,77.63672,77.734375,77.828125,77.91406,77.99609,78.07422,78.140625,78.203125,78.26172,78.30859,78.34766,78.37891,78.40625,78.421875,78.4375,78.44531,78.44922,78.44922,78.44922,78.44922,78.44922,78.44922,78.44922,78.44922,78.44922,78.44922,78.44922,78.44922,78.44922,78.44922,78.44922,78.44922,78.44922,78.44922,78.44922,78.44922,78.44922,78.44922,78.44922,78.44922,78.44922,78.44922,78.44922,78.44922,78.44922,78.44922,78.44922,78.44922,78.44922,78.44922,78.44922,78.44922,78.44922,78.44922,78.44922,78.44922,78.44922,78.44922,78.44922,78.44922,78.44922,78.44922,78.44922,78.44922,78.44922,78.44922,78.44922,78.44922,78.44922,78.44922,78.44922,78.44922,78.44922,78.44922,78.44922,78.44922,78.44922,78.44922,78.44922,78.44922,78.44922,78.44922,78.44922,78.44922,78.44922,78.44531
66.88672,66.83203,66.796875,66.78125,66.79297,66.82422,66.87891,66.953125,67.05469,67.171875,67.31641,67.47656,67.66016,67.859375,68.07422,68.30859,68.55469,68.81641,69.08594,69.36719,69.65625,69.953125,70.25391,70.55859,70.86328,71.16797,71.47266,71.76953,72.0625,72.34766,72.62109,72.88672,73.140625,73.37891,73.60156,73.80859,73.99609,74.16406,74.31641,74.44531,74.55078,74.63672,74.69922,74.74219,74.75781,74.75391,74.72656,74.67969,74.609375,74.52344,74.41797,74.29297,74.15625,74.00391,73.84375,73.671875,73.5,73.32422,73.14844,72.97656,72.81641,72.66016,72.515625,72.38672,72.26953,72.16797,72.08594,72.02344,71.97656,71.94922,71.94141,71.95703,71.99219,72.046875,72.125,72.21875,72.33594,72.46875,72.625,72.796875,72.984375,73.1875,73.40625,73.63672,73.87891,74.13672,74.39844,74.671875,74.94922,75.23047,75.515625,75.80469,76.08984,76.375,76.65625,76.93359,77.203125,77.46484,77.71484,77.953125,78.17969,78.39453,78.59375,78.77344,78.9375,79.08594,79.21094,79.31641,79.40625,79.46875,79.515625,79.54297,79.546875,79.53125,79.49609,79.44531,79.375,79.28906,79.19141,79.08203,78.96484,78.83984,78.71094,78.58203,78.453125,78.32422,78.19531,78.06641,77.94141,77.81641,77.69141,77.57422,77.453125,77.33984,77.23047,77.125,77.02734,76.93359,76.84375,76.765625,76.69141,76.625,76.56641,76.515625,76.47656,76.44141,76.41797,76.40625,76.39844,76.40234,76.41406,76.4375,76.46875,76.50781,76.55469,76.609375,76.66797,76.73828,76.8125,76.89453,76.98047,77.07031,77.16016,77.25781,77.35547,77.45703,77.55859,77.65625,77.75781,77.85547,77.94922,78.03906,78.12891,78.21094,78.28516,78.359375,78.421875,78.48047,78.53516,78.578125,78.61719,78.64453,78.66797,78.6875,78.69922,78.70703,78.71094,78.71094,78.71094,78.71094,78.71094,78.71094,78.71094,78.71094,78.71094,78.71094,78.71094,78.71094,78.71094,78.71094,78.71094,78.71094,78.71094,78.71094,78.71094,78.71094,78.71094,78.71094,78.71094,78.71094,78.71094,78.71094,78.71094,78.71094,78.71094,78.71094,78.71094,78.71094,78.71094,78.71094,78.71094,78.71094,78.71094,78.71094,78.71094,78.71094,78.71094,78.71094,78.71094,78.71094,78.71094,78.71094,78.71094,78.71094,78.71094,78.71094,78.71094,78.71094,78.71094,78.71094,78.71094,78.71094,78.71094,78.71094,78.71094,78.71094,78.71094,78.71094,78.71094,78.71094,78.71094,78.71094,78.71094,78.71094,78.71094,78.70703
66.93359,66.87109,66.83203,66.81641,66.82422,66.85547,66.91016,66.98828,67.08984,67.21484,67.359375,67.52344,67.71094,67.91406,68.13672,68.37891,68.63281,68.90234,69.17969,69.46875,69.76953,70.07422,70.38672,70.69922,71.015625,71.328125,71.640625,71.94922,72.25,72.54297,72.828125,73.10156,73.359375,73.60547,73.83594,74.046875,74.24219,74.41406,74.56641,74.69922,74.80859,74.89453,74.96094,75.0,75.015625,75.01172,74.98047,74.92969,74.85547,74.76172,74.64844,74.51953,74.375,74.21484,74.046875,73.86719,73.6875,73.5,73.32031,73.140625,72.96875,72.80469,72.65234,72.51172,72.38281,72.27344,72.17969,72.10547,72.046875,72.01172,71.99219,71.99609,72.02344,72.06641,72.13281,72.21875,72.328125,72.453125,72.59766,72.76172,72.94141,73.140625,73.35547,73.58203,73.82031,74.07422,74.33594,74.60547,74.88672,75.16797,75.45703,75.74609,76.03906,76.328125,76.61719,76.89844,77.17578,77.44531,77.70703,77.95703,78.19531,78.41797,78.62891,78.82031,78.99609,79.15625,79.29297,79.41406,79.51172,79.59375,79.64844,79.6875,79.703125,79.69922,79.67578,79.63672,79.578125,79.50391,79.41406,79.3125,79.203125,79.08594,78.96484,78.84766,78.72656,78.60547,78.484375,78.36719,78.24609,78.13281,78.015625,77.90234,77.79297,77.6875,77.58594,77.48828,77.39453,77.30859,77.22656,77.14844,77.08203,77.01953,76.96484,76.91797,76.87891,76.84766,76.828125,76.8125,76.80859,76.8125,76.82422,76.84375,76.87109,76.91016,76.953125,77.00391,77.0625,77.125,77.19531,77.26953,77.35156,77.43359,77.51953,77.609375,77.703125,77.796875,77.890625,77.984375,78.07422,78.16797,78.25391,78.33984,78.421875,78.5,78.57031,78.63672,78.69922,78.75391,78.80078,78.84375,78.87891,78.90625,78.92969,78.94531,78.95703,78.96094,78.96484,78.96484,78.96484,78.96484,78.96484,78.96484,78.96484,78.96484,78.96484,78.96484,78.96484,78.96484,78.96484,78.96484,78.96484,78.96484,78.96484,78.96484,78.96484,78.96484,78.96484,78.96484,78.96484,78.96484,78.96484,78.96484,78.96484,78.96484,78.96484,78.96484,78.96484,78.96484,78.96484,78.96484,78.96484,78.96484,78.96484,78.96484,78.96484,78.96484,78.96484,78.96484,78.96484,78.96484,78.96484,78.96484,78.96484,78.96484,78.96484,78.96484,78.96484,78.96484,78.96484,78.96484,78.96484,78.96484,78.96484,78.96484,78.96484,78.96484,78.96484,78.96484,78.96484,78.96484,78.96484,78.96484,78.96484,78.96484,78.96484,78.96484
67.01172,66.94922,66.90625,66.88672,66.89453,66.921875,66.97656,67.05469,67.16016,67.28516,67.43359,67.60156,67.79297,68.00391,68.23047,68.47656,68.73828,69.01172,69.30078,69.59766,69.90625,70.21875,70.53906,70.86328,71.1875,71.50781,71.828125,72.14453,72.45703,72.75781,73.05078,73.33203,73.59766,73.84766,74.08594,74.30078,74.5,74.67969,74.83594,74.96875,75.08203,75.16797,75.23047,75.27344,75.28516,75.27734,75.24609,75.19141,75.11328,75.01172,74.89453,74.75781,74.60547,74.44141,74.26172,74.078125,73.88672,73.69141,73.5,73.3125,73.13281,72.96094,72.796875,72.64844,72.51172,72.390625,72.28516,72.19922,72.13281,72.08594,72.05859,72.05078,72.06641,72.09766,72.15625,72.23047,72.328125,72.44531,72.58594,72.74219,72.91406,73.10547,73.3125,73.53516,73.77344,74.02344,74.28125,74.55078,74.828125,75.11328,75.40234,75.69531,75.99219,76.28516,76.578125,76.86719,77.15234,77.42969,77.69922,77.96094,78.20703,78.44141,78.66016,78.86719,79.05469,79.22266,79.375,79.50781,79.61719,79.70703,79.77734,79.828125,79.85547,79.86328,79.85156,79.82031,79.76953,79.70703,79.62891,79.53516,79.43359,79.328125,79.21484,79.10156,78.99219,78.87891,78.765625,78.65625,78.546875,78.4375,78.33203,78.22656,78.125,78.02734,77.92969,77.83984,77.75391,77.671875,77.59375,77.52344,77.46094,77.40234,77.35156,77.30859,77.27344,77.24609,77.22656,77.21484,77.20703,77.21094,77.22266,77.24219,77.265625,77.30078,77.33984,77.390625,77.44141,77.50391,77.56641,77.63672,77.71094,77.78906,77.87109,77.953125,78.03906,78.125,78.21484,78.30078,78.38672,78.47266,78.55469,78.63281,78.70703,78.78125,78.84766,78.91016,78.96484,79.015625,79.0625,79.10156,79.13281,79.16016,79.17969,79.19531,79.203125,79.21094,79.21484,79.21484,79.21484,79.21484,79.21484,79.21484,79.21484,79.21484,79.21484,79.21484,79.21484,79.21484,79.21484,79.21484,79.21484,79.21484,79.21484,79.21484,79.21484,79.21484,79.21484,79.21484,79.21484,79.21484,79.21484,79.21484,79.21484,79.21484,79.21484,79.21484,79.21484,79.21484,79.21484,79.21484,79.21484,79.21484,79.21484,79.21484,79.21484,79.21484,79.21484,79.21484,79.21484,79.21484,79.21484,79.21484,79.21484,79.21484,79.21484,79.21484,79.21484,79.21484,79.21484,79.21484,79.21484,79.21484,79.21484,79.21484,79.21484,79.21484,79.21484,79.21484,79.21484,79.21484,79.21484,79.21484,79.21484,79.21484,79.21484,79.21484
67.125,67.05469,67.01172,66.98828,66.99219,67.02344,67.078125,67.15625,67.25781,67.38672,67.53516,67.71094,67.90234,68.11719,68.35156,68.60547,68.87109,69.15234,69.44922,69.75391,70.06641,70.390625,70.71875,71.046875,71.37891,71.71094,72.03906,72.36328,72.67969,72.99219,73.28906,73.578125,73.85156,74.109375,74.34766,74.57031,74.77344,74.95703,75.11328,75.25,75.36328,75.453125,75.515625,75.55469,75.56641,75.55859,75.51953,75.46094,75.37891,75.27344,75.15234,75.00781,74.84766,74.67578,74.48828,74.296875,74.09766,73.89453,73.69531,73.5,73.30859,73.12891,72.95703,72.796875,72.65234,72.51953,72.40625,72.30859,72.23047,72.171875,72.13281,72.11719,72.12109,72.14453,72.19141,72.25781,72.34375,72.453125,72.58203,72.73047,72.89453,73.08203,73.28125,73.5,73.73047,73.97656,74.234375,74.50391,74.78125,75.06641,75.35547,75.65234,75.94922,76.24609,76.546875,76.83984,77.13281,77.41406,77.69141,77.96094,78.21875,78.46094,78.69141,78.91016,79.10547,79.28906,79.44922,79.59375,79.71875,79.82031,79.89844,79.96094,80.0,80.01953,80.015625,79.99609,79.95703,79.90234,79.83203,79.75,79.65625,79.55859,79.453125,79.35156,79.24609,79.140625,79.03906,78.9375,78.83594,78.734375,78.63672,78.53906,78.44531,78.35156,78.265625,78.17969,78.10156,78.02344,77.953125,77.890625,77.828125,77.77734,77.73047,77.69141,77.65625,77.62891,77.609375,77.59766,77.59375,77.59766,77.609375,77.625,77.64844,77.67969,77.71875,77.76172,77.8125,77.86719,77.92578,77.99219,78.0625,78.13281,78.20703,78.28516,78.36328,78.44531,78.52734,78.60547,78.6875,78.765625,78.83984,78.91406,78.984375,79.05078,79.11328,79.171875,79.22266,79.26953,79.3125,79.34766,79.37891,79.40234,79.421875,79.43359,79.44531,79.44922,79.453125,79.453125,79.453125,79.453125,79.453125,79.453125,79.453125,79.453125,79.453125,79.453125,79.453125,79.453125,79.453125,79.453125,79.453125,79.453125,79.453125,79.453125,79.453125,79.453125,79.453125,79.453125,79.453125,79.453125,79.453125,79.453125,79.453125,79.453125,79.453125,79.453125,79.453125,79.453125,79.453125,79.453125,79.453125,79.453125,79.453125,79.453125,79.453125,79.453125,79.453125,79.453125,79.453125,79.453125,79.453125,79.453125,79.453125,79.453125,79.453125,79.453125,79.453125,79.453125,79.453125,79.453125,79.453125,79.453125,79.453125,79.453125,79.453125,79.453125,79.453125,79.453125,79.453125,79.453125,79.453125,79.453125,79.453125,79.453125,79.453125,79.453125
67.26953,67.19531,67.14844,67.125,67.125,67.15234,67.20703,67.28516,67.38672,67.515625,67.66797,67.84766,68.04297,68.26172,68.5,68.75781,69.03125,69.31641,69.61719,69.92969,70.25391,70.58203,70.91406,71.25391,71.59375,71.93359,72.26953,72.59766,72.92578,73.23828,73.546875,73.83984,74.11719,74.37891,74.625,74.85156,75.05859,75.24219,75.40625,75.54297,75.65625,75.74609,75.80859,75.84766,75.859375,75.84375,75.80469,75.74219,75.65625,75.546875,75.41406,75.265625,75.10156,74.91797,74.72656,74.52344,74.31641,74.10547,73.89844,73.69531,73.49609,73.30469,73.125,72.95703,72.80078,72.66016,72.53516,72.42969,72.33984,72.26953,72.22266,72.19531,72.1875,72.19922,72.234375,72.29297,72.37109,72.46875,72.58594,72.72656,72.88672,73.0625,73.25781,73.47266,73.69922,73.94141,74.19531,74.46094,74.734375,75.01953,75.3125,75.609375,75.91016,76.21094,76.51172,76.8125,77.109375,77.40234,77.68359,77.96094,78.22656,78.48047,78.71875,78.94531,79.15625,79.34766,79.51953,79.67578,79.80859,79.921875,80.015625,80.08594,80.13281,80.16406,80.171875,80.16016,80.13281,80.08594,80.02344,79.94922,79.86719,79.77734,79.67969,79.58594,79.48828,79.39453,79.296875,79.203125,79.109375,79.015625,78.92578,78.83594,78.75,78.66406,78.58594,78.50781,78.43359,78.36328,78.296875,78.23828,78.18359,78.13281,78.08984,78.05469,78.02344,78.0,77.98047,77.97266,77.96875,77.96875,77.98047,77.99609,78.01953,78.046875,78.08203,78.12109,78.16797,78.21875,78.27344,78.33203,78.39844,78.46484,78.53125,78.60547,78.67578,78.75,78.82422,78.89844,78.97266,79.046875,79.11719,79.18359,79.24609,79.30859,79.36719,79.41797,79.46875,79.51172,79.55078,79.58203,79.609375,79.63281,79.64844,79.66406,79.671875,79.67578,79.67969,79.67969,79.67969,79.67969,79.67969,79.67969,79.67969,79.67969,79.67969,79.67969,79.67969,79.67969,79.67969,79.67969,79.67969,79.67969,79.67969,79.67969,79.67969,79.67969,79.67969,79.67969,79.67969,79.67969,79.67969,79.67969,79.67969,79.67969,79.67969,79.67969,79.67969,79.67969,79.67969,79.67969,79.67969,79.67969,79.67969,79.67969,79.67969,79.67969,79.67969,79.67969,79.67969,79.67969,79.67969,79.67969,79.67969,79.67969,79.67969,79.67969,79.67969,79.67969,79.67969,79.67969,79.67969,79.67969,79.67969,79.67969,79.67969,79.67969,79.67969,79.67969,79.67969,79.67969,79.67969,79.67969,79.67969,79.67969,79.67969,79.67969
67.44141,67.36719,67.3125,67.28516,67.28516,67.3125,67.36328,67.44141,67.546875,67.67578,67.83203,68.00781,68.21094,68.43359,68.67578,68.93359,69.21484,69.50781,69.8125,70.12891,70.45703,70.79297,71.13281,71.48047,71.82422,72.171875,72.51172,72.85156,73.17969,73.50391,73.81641,74.11328,74.39844,74.66406,74.91406,75.14453,75.35547,75.53906,75.703125,75.84375,75.95703,76.046875,76.109375,76.14453,76.15625,76.140625,76.09766,76.02734,75.9375,75.82422,75.6875,75.53125,75.359375,75.16797,74.96875,74.76172,74.54297,74.328125,74.11328,73.89844,73.69141,73.49219,73.30469,73.125,72.96094,72.80859,72.67578,72.55859,72.46094,72.37891,72.32031,72.28125,72.26172,72.265625,72.28906,72.33594,72.40234,72.49219,72.60156,72.734375,72.88672,73.05469,73.24219,73.44922,73.671875,73.91016,74.16016,74.421875,74.69531,74.98047,75.26953,75.57031,75.87109,76.17578,76.48047,76.78516,77.08594,77.38281,77.67578,77.95703,78.23047,78.49219,78.74219,78.97656,79.19531,79.39844,79.58203,79.74609,79.890625,80.015625,80.11719,80.19922,80.25781,80.296875,80.31641,80.31641,80.29297,80.25781,80.20703,80.140625,80.0625,79.98047,79.89453,79.80469,79.71875,79.62891,79.54297,79.45703,79.37109,79.28516,79.203125,79.12109,79.03906,78.96094,78.88672,78.81641,78.75,78.68359,78.625,78.57031,78.51953,78.47656,78.43359,78.40234,78.375,78.35156,78.33594,78.32422,78.32031,78.32422,78.33203,78.34766,78.36719,78.39453,78.42578,78.46484,78.50391,78.55078,78.60156,78.65625,78.71484,78.77734,78.83984,78.90625,78.97266,79.03906,79.109375,79.17578,79.24609,79.3125,79.375,79.4375,79.49609,79.55469,79.60547,79.65234,79.69922,79.73828,79.77344,79.80469,79.828125,79.84766,79.86719,79.87891,79.88672,79.890625,79.89453,79.89453,79.89453,79.89453,79.89453,79.89453,79.89453,79.89453,79.89453,79.89453,79.89453,79.89453,79.89453,79.89453,79.89453,79.89453,79.89453,79.89453,79.89453,79.89453,79.89453,79.89453,79.89453,79.89453,79.89453,79.89453,79.89453,79.89453,79.89453,79.89453,79.89453,79.89453,79.89453,79.89453,79.89453,79.89453,79.89453,79.89453,79.89453,79.89453,79.89453,79.89453,79.89453,79.89453,79.89453,79.89453,79.89453,79.89453,79.89453,79.89453,79.89453,79.89453,79.89453,79.89453,79.89453,79.89453,79.89453,79.89453,79.89453,79.89453,79.89453,79.89453,79.89453,79.89453,79.89453,79.89453,79.89453,79.89453,79.89453,79.890625
67.64453,67.56641,67.50781,67.48047,67.47656,67.5,67.55078,67.62891,67.734375,67.86328,68.01953,68.19922,68.40234,68.62891,68.87109,69.13672,69.41797,69.71484,70.02734,70.35156,70.68359,71.02344,71.37109,71.72266,72.07422,72.42578,72.77344,73.11719,73.453125,73.78125,74.09375,74.39844,74.6875,74.95703,75.21094,75.44531,75.65625,75.84375,76.01172,76.15234,76.265625,76.35547,76.41406,76.44922,76.45703,76.4375,76.390625,76.32031,76.22266,76.10547,75.96094,75.80078,75.62109,75.42578,75.21875,75.0,74.77734,74.55469,74.328125,74.109375,73.89453,73.6875,73.48828,73.30078,73.12891,72.96875,72.82422,72.69531,72.58594,72.49609,72.42578,72.375,72.34766,72.33984,72.35156,72.38672,72.44531,72.52734,72.625,72.75,72.890625,73.05469,73.234375,73.43359,73.65234,73.88281,74.12891,74.390625,74.66016,74.94141,75.234375,75.53125,75.83594,76.140625,76.44922,76.75781,77.0625,77.36719,77.66406,77.953125,78.23047,78.50391,78.75781,79.00391,79.23047,79.44141,79.63672,79.80859,79.96484,80.09766,80.21094,80.30078,80.37109,80.41797,80.44531,80.453125,80.44531,80.41406,80.37109,80.3125,80.24609,80.171875,80.08984,80.01172,79.92969,79.85156,79.76953,79.69141,79.61328,79.53516,79.46094,79.38281,79.3125,79.24219,79.171875,79.109375,79.046875,78.98828,78.93359,78.88281,78.83594,78.796875,78.76172,78.73047,78.703125,78.68359,78.66797,78.66016,78.65625,78.66016,78.66797,78.67969,78.69922,78.72266,78.75391,78.78516,78.82422,78.86719,78.91406,78.96484,79.015625,79.07031,79.12891,79.19141,79.25,79.3125,79.375,79.4375,79.5,79.55859,79.61719,79.67578,79.73047,79.78125,79.828125,79.87109,79.91406,79.94922,79.98047,80.00781,80.03125,80.05078,80.06641,80.078125,80.08203,80.08984,80.08984,80.08984,80.08984,80.08984,80.08984,80.08984,80.08984,80.08984,80.08984,80.08984,80.08984,80.08984,80.08984,80.08984,80.08984,80.08984,80.08984,80.08984,80.08984,80.08984,80.08984,80.08984,80.08984,80.08984,80.08984,80.08984,80.08984,80.08984,80.08984,80.08984,80.08984,80.08984,80.08984,80.08984,80.08984,80.08984,80.08984,80.08984,80.08984,80.08984,80.08984,80.08984,80.08984,80.08984,80.08984,80.08984,80.08984,80.08984,80.08984,80.08984,80.08984,80.08984,80.08984,80.08984,80.08984,80.08984,80.08984,80.08984,80.08984,80.08984,80.08984,80.08984,80.08984,80.08984,80.08984,80.08984,80.08984,80.08984,80.08984,80.08984
67.875,67.78906,67.73047,67.69922,67.69141,67.71484,67.76172,67.83984,67.94531,68.07422,68.23047,68.41406,68.61719,68.84375,69.09375,69.359375,69.64453,69.94531,70.26172,70.58984,70.92578,71.27344,71.625,71.98047,72.33594,72.69141,73.046875,73.39453,73.734375,74.06641,74.38672,74.69531,74.984375,75.26172,75.515625,75.75,75.96484,76.15625,76.32031,76.46094,76.578125,76.66406,76.72656,76.75781,76.76172,76.73828,76.69141,76.61328,76.515625,76.390625,76.24219,76.07422,75.88672,75.6875,75.47266,75.24609,75.015625,74.78516,74.55469,74.32422,74.10156,73.88672,73.67969,73.484375,73.30078,73.13281,72.97656,72.83984,72.71875,72.62109,72.53906,72.47656,72.4375,72.41797,72.421875,72.44922,72.49609,72.56641,72.65625,72.76953,72.90234,73.05859,73.23047,73.42578,73.63281,73.86328,74.10156,74.359375,74.62891,74.90625,75.19531,75.49609,75.796875,76.10547,76.41406,76.72656,77.03516,77.34375,77.64453,77.94141,78.22656,78.50391,78.76953,79.01953,79.25781,79.47656,79.67969,79.859375,80.02344,80.16797,80.28906,80.390625,80.46875,80.52734,80.5625,80.578125,80.578125,80.55859,80.51953,80.47266,80.41016,80.34375,80.27344,80.19922,80.125,80.05469,79.98047,79.91016,79.83984,79.765625,79.69922,79.62891,79.5625,79.5,79.4375,79.37891,79.32422,79.26953,79.22266,79.17578,79.13281,79.09766,79.0625,79.03516,79.01172,78.99609,78.98047,78.97266,78.96875,78.97266,78.98047,78.99219,79.00781,79.03125,79.05469,79.08594,79.12109,79.16016,79.203125,79.24609,79.296875,79.34766,79.39844,79.453125,79.50781,79.56641,79.62109,79.67969,79.734375,79.78906,79.84375,79.89453,79.94141,79.98828,80.03125,80.07422,80.109375,80.14453,80.171875,80.19531,80.21875,80.234375,80.25,80.25781,80.265625,80.26953,80.26953,80.27344,80.27344,80.27344,80.27344,80.27344,80.27344,80.27344,80.27344,80.27344,80.27344,80.27344,80.27344,80.27344,80.27344,80.27344,80.27344,80.27344,80.27344,80.27344,80.27344,80.27344,80.27344,80.27344,80.27344,80.27344,80.27344,80.27344,80.27344,80.27344,80.27344,80.27344,80.27344,80.27344,80.27344,80.27344,80.27344,80.27344,80.27344,80.27344,80.27344,80.27344,80.27344,80.27344,80.27344,80.27344,80.27344,80.27344,80.27344,80.27344,80.27344,80.27344,80.27344,80.27344,80.27344,80.27344,80.27344,80.27344,80.27344,80.27344,80.27344,80.27344,80.27344,80.27344,80.27344,80.27344,80.27344,80.27344,80.26953,80.26953
68.13281,68.04297,67.97656,67.94141,67.93359,67.953125,68.0,68.078125,68.17969,68.30859,68.46875,68.64844,68.85547,69.08203,69.33203,69.60547,69.890625,70.19531,70.515625,70.84766,71.1875,71.53516,71.890625,72.25,72.61328,72.97266,73.328125,73.67969,74.02734,74.359375,74.68359,74.99609,75.28906,75.56641,75.82422,76.0625,76.27734,76.46875,76.63672,76.77734,76.890625,76.97656,77.03516,77.06641,77.06641,77.04297,76.98828,76.91016,76.80469,76.671875,76.51953,76.34766,76.15625,75.94531,75.72656,75.49219,75.25781,75.015625,74.77734,74.54297,74.3125,74.08984,73.875,73.671875,73.48047,73.30078,73.13672,72.98828,72.859375,72.74609,72.65625,72.58594,72.53516,72.50391,72.5,72.51172,72.55078,72.609375,72.69141,72.796875,72.921875,73.06641,73.234375,73.41797,73.62109,73.84375,74.08203,74.33203,74.59766,74.875,75.16016,75.45703,75.76172,76.07031,76.37891,76.69141,77.00781,77.31641,77.62109,77.921875,78.21484,78.5,78.76953,79.02734,79.27344,79.03516,79.24219,79.42578,79.58984,79.73828,79.86328,79.96875,80.05078,80.11719,80.16016,80.18359,80.19141,80.17969,80.14844,80.11328,80.05859,80.0,79.9375,79.875,79.80859,79.75,79.6875,79.62109,79.5625,79.49609,79.4375,79.37891,79.32422,79.265625,79.21094,79.16016,79.11328,79.06641,79.02344,78.984375,78.94531,78.91797,78.88672,78.859375,78.83984,78.82422,78.8125,78.80859,78.80469,78.80859,78.8125,78.82031,78.83594,78.85547,78.87891,78.90625,78.93359,78.96875,79.00781,79.04297,79.08984,79.13281,79.17578,79.22656,79.27344,79.32422,79.37109,79.421875,79.46875,79.99609,80.046875,80.09375,80.13672,80.17969,80.21875,80.25391,80.28906,80.31641,80.34375,80.36719,80.38281,80.39844,80.41406,80.421875,80.42578,80.42969,80.43359,80.43359,80.43359,80.43359,80.43359,80.43359,80.43359,80.43359,80.43359,80.43359,80.43359,80.43359,80.43359,80.43359,80.43359,80.43359,80.43359,80.43359,80.43359,80.43359,80.43359,80.43359,80.43359,80.43359,80.43359,80.43359,80.43359,80.43359,80.43359,80.43359,80.43359,80.43359,80.43359,80.43359,80.43359,80.43359,80.43359,80.43359,80.43359,80.43359,80.43359,80.43359,80.43359,80.43359,80.43359,80.43359,80.43359,80.43359,80.43359,80.43359,80.43359,80.43359,80.43359,80.43359,80.43359,80.43359,80.43359,80.43359,80.43359,80.43359,80.43359,80.43359,80.43359,80.43359,80.43359,80.43359,80.43359,80.43359,80.43359,80.43359
68.41016,68.31641,68.25,68.21094,68.19922,68.21484,68.26172,68.33594,68.4375,68.56641,68.72266,68.90625,69.11328,69.34375,69.59375,69.86328,70.15625,70.46094,70.78125,71.11719,71.46094,71.8125,72.171875,72.53516,72.89844,73.26172,73.62109,73.97656,74.32422,74.66406,74.98828,75.30078,75.59766,75.875,76.13672,76.375,76.58984,76.78125,76.94922,77.08984,77.203125,77.28906,77.34375,77.37109,77.37109,77.34375,77.28516,77.203125,77.09375,76.95703,76.80078,76.62109,76.421875,76.20703,75.98047,75.74219,75.49609,75.25,75.00391,74.76172,74.52734,74.29297,74.07031,73.859375,73.66016,73.47266,73.296875,73.140625,73.00391,72.87891,72.77734,72.69531,72.63672,72.59766,72.578125,72.58203,72.609375,72.66016,72.734375,72.828125,72.94141,73.08203,73.23828,73.41797,73.61328,73.828125,74.05859,74.30469,74.56641,74.83984,75.125,75.421875,75.72266,76.03125,76.34375,76.65625,76.97266,77.28516,77.59375,77.89844,78.19531,78.484375,78.76172,78.58203,78.82031,79.046875,78.78906,78.97656,79.14453,79.29297,79.41797,79.52734,79.62109,79.6875,79.734375,79.76953,79.78125,79.77734,79.75391,79.72266,79.67969,79.62891,79.57422,79.51953,79.46484,79.41406,79.359375,79.30469,79.25,79.19922,79.14453,79.09375,79.04297,78.99219,78.94922,78.90234,78.86328,78.82422,78.78516,78.75,78.72266,78.69141,78.66797,78.64453,78.625,78.61719,78.60547,78.59766,78.59766,78.59766,78.60156,78.61328,78.625,78.640625,78.66406,78.68359,78.71094,78.73828,78.77344,78.80469,78.83984,78.88281,78.91797,78.96094,79.0,79.04297,79.08984,79.12891,79.65625,79.69531,79.73828,80.26953,80.30859,80.34766,80.38281,80.41406,80.44531,80.46875,80.49219,80.515625,80.53125,80.54297,80.55469,80.5625,80.57031,80.57422,80.57422,80.57422,80.57422,80.57422,80.57422,80.57422,80.57422,80.57422,80.57422,80.57422,80.57422,80.57422,80.57422,80.57422,80.57422,80.57422,80.57422,80.57422,80.57422,80.57422,80.57422,80.57422,80.57422,80.57422,80.57422,80.57422,80.57422,80.57422,80.57422,80.57422,80.57422,80.57422,80.57422,80.57422,80.57422,80.57422,80.57422,80.57422,80.57422,80.57422,80.57422,80.57422,80.57422,80.57422,80.57422,80.57422,80.57422,80.57422,80.57422,80.57422,80.57422,80.57422,80.57422,80.57422,80.57422,80.57422,80.57422,80.57422,80.57422,80.57422,80.57422,80.57422,80.57422,80.57422,80.57422,80.57422,80.57422,80.57422,80.57422,80.57422
68.71094,68.61328,68.53906,68.49609,68.484375,68.49609,68.53906,68.61328,68.71484,68.84375,69.0,69.17969,69.38672,69.61719,69.87109,70.140625,70.43359,70.74219,71.06641,71.39844,71.74609,72.10156,72.46094,72.828125,73.19141,73.55859,73.921875,74.27734,74.62891,74.96875,75.296875,75.609375,75.90625,76.1875,76.44922,76.6875,76.90234,77.09375,77.26172,77.40234,77.51172,77.59766,77.65234,77.67578,77.671875,77.640625,77.58203,77.49219,77.37891,77.23828,77.07422,76.890625,76.68359,76.46484,76.23047,75.984375,75.734375,75.484375,75.23047,74.98047,74.73828,74.5,74.26953,74.05078,73.83984,73.64453,73.46094,73.296875,73.14844,73.015625,72.90234,72.8125,72.73828,72.69141,72.66406,72.65625,72.671875,72.71484,72.77734,72.859375,72.96875,73.09766,73.24609,73.41406,73.60547,73.8125,74.03906,74.28125,74.53906,74.80859,75.08984,75.37891,75.67969,75.98828,76.30078,76.61328,76.92969,77.24609,77.55859,77.86719,78.16797,78.46094,78.30469,78.56641,78.359375,78.58594,78.79297,78.51172,78.67969,78.828125,78.95703,79.07031,79.16016,79.234375,79.29297,79.328125,79.34375,79.34766,79.33203,79.30859,79.27344,79.23047,79.1875,79.13672,79.08984,79.04297,78.99609,78.953125,78.90625,78.859375,78.81641,78.77344,78.72656,78.6875,78.64844,78.609375,78.57422,78.53906,78.50781,78.48047,78.44922,78.42578,78.40625,78.38672,78.375,78.359375,78.35156,78.34375,78.34375,78.34375,78.35156,78.359375,78.37109,78.38281,78.40234,78.41797,78.44531,78.46875,78.49609,78.52344,78.55469,78.58594,78.62109,78.65625,78.69141,78.73047,78.765625,79.28906,79.328125,79.36328,79.89453,79.92578,80.45703,80.49219,80.52344,80.55078,80.578125,80.60156,80.62109,80.640625,80.65625,80.66797,80.67578,80.68359,80.6875,80.69141,80.69141,80.69531,80.69531,80.69531,80.69531,80.69531,80.69531,80.69531,80.69531,80.69531,80.69531,80.69531,80.69531,80.69531,80.69531,80.69531,80.69531,80.69531,80.69531,80.69531,80.69531,80.69531,80.69531,80.69531,80.69531,80.69531,80.69531,80.69531,80.69531,80.69531,80.69531,80.69531,80.69531,80.69531,80.69531,80.69531,80.69531,80.69531,80.69531,80.69531,80.69531,80.69531,80.69531,80.69531,80.69531,80.69531,80.69531,80.69531,80.69531,80.69531,80.69531,80.69531,80.69531,80.69531,80.69531,80.69531,80.69531,80.69531,80.69531,80.69531,80.69531,80.69531,80.69531,80.69531,80.69531,80.69531,80.69531,80.69531,80.69531,80.69141
69.02734,68.92578,68.85156,68.80469,68.78516,68.796875,68.83984,68.91016,69.00781,69.13672,69.28906,69.47266,69.67578,69.90625,70.16016,70.43359,70.72656,71.03516,71.35547,71.69531,72.04297,72.39844,72.75781,73.125,73.49219,73.859375,74.22656,74.58203,74.93359,75.27734,75.60547,75.91797,76.21875,76.5,76.75781,77.0,77.21484,77.40625,77.57031,77.70703,77.81641,77.89844,77.953125,77.97656,77.96875,77.93359,77.86719,77.77734,77.65625,77.51172,77.34375,77.15234,76.94531,76.71875,76.47656,76.22656,75.96875,75.71094,75.453125,75.19922,74.94922,74.703125,74.46484,74.23828,74.01953,73.81641,73.625,73.44922,73.29297,73.15234,73.03125,72.92578,72.84766,72.78516,72.74609,72.73047,72.73828,72.76953,72.82031,72.89453,72.99219,73.11328,73.25391,73.41797,73.59766,73.80078,74.01953,74.25391,74.50781,74.77344,75.05078,75.33984,75.63672,75.94141,76.25391,76.56641,76.88672,77.203125,77.515625,77.82422,78.12891,78.42578,78.27734,78.09766,78.34375,78.109375,78.31641,78.50781,78.19922,78.34766,78.47656,78.59375,78.6875,78.765625,78.82031,78.86328,78.88672,78.890625,78.88672,78.86719,78.83984,78.80469,78.765625,78.72266,78.6875,78.64844,78.60547,78.56641,78.52734,78.48828,78.453125,78.41406,78.37891,78.34375,78.30859,78.27734,78.24609,78.21484,78.1875,78.16406,78.140625,78.12109,78.10547,78.08594,78.078125,78.06641,78.05859,78.05469,78.05469,78.05469,78.05859,78.0625,78.07422,78.08594,78.10156,78.11719,78.13672,78.16016,78.17969,78.20703,78.234375,78.25781,78.28516,78.31641,78.34766,78.37891,78.90234,78.93359,78.96484,79.49219,79.51953,80.05078,80.08203,80.609375,80.63672,80.66406,80.6875,80.70703,80.72656,80.74219,80.75781,80.765625,80.77734,80.78125,80.78516,80.78906,80.78906,80.78906,80.78906,80.78906,80.78906,80.78906,80.78906,80.78906,80.78906,80.78906,80.78906,80.78906,80.78906,80.78906,80.78906,80.78906,80.78906,80.78906,80.78906,80.78906,80.78906,80.78906,80.78906,80.78906,80.78906,80.78906,80.78906,80.78906,80.78906,80.78906,80.78906,80.78906,80.78906,80.78906,80.78906,80.78906,80.78906,80.78906,80.78906,80.78906,80.78906,80.78906,80.78906,80.78906,80.78906,80.78906,80.78906,80.78906,80.78906,80.78906,80.78906,80.78906,80.78906,80.78906,80.78906,80.78906,80.78906,80.78906,80.78906,80.78906,80.78906,80.78906,80.78906,80.78906,80.78906,80.78906,80.78906,80.78906,80.78906,80.78906
69.36328,69.25781,69.17578,69.12891,69.10547,69.11328,69.15234,69.21875,69.31641,69.44141,69.59766,69.77734,69.98047,70.21094,70.46094,70.734375,71.02734,71.33594,71.66016,71.99609,72.34375,72.69922,73.0625,73.42969,73.796875,74.16797,74.53125,74.890625,75.24219,75.58203,75.91016,76.22656,76.52734,76.80469,77.06641,77.30469,77.51953,77.70703,77.87109,78.00781,78.11719,78.19531,78.24609,78.265625,78.25781,78.21875,78.14844,78.05469,77.92969,77.78125,77.60547,77.41016,77.19531,76.96484,76.71875,76.46484,76.19922,75.9375,75.671875,75.41016,75.15234,74.90234,74.66016,74.421875,74.19922,73.98828,73.78906,73.60547,73.4375,73.28516,73.15625,73.04297,72.953125,72.88281,72.83203,72.80859,72.80469,72.82422,72.86719,72.93359,73.01953,73.12891,73.26172,73.41797,73.58984,73.78516,73.99609,74.22656,74.47266,74.734375,75.00781,75.29297,75.58984,75.890625,76.19922,76.515625,76.83203,77.14844,77.46484,77.77734,77.66797,77.95703,78.23828,78.0625,77.859375,78.08594,77.828125,78.015625,78.1875,77.85547,77.984375,78.10156,78.19531,78.27344,78.33203,78.37891,78.40625,78.41797,78.41797,78.40625,78.38281,78.35156,78.32031,78.28516,78.25391,78.21875,78.1875,78.15234,78.12109,78.08594,78.05469,78.02734,77.99219,77.96484,77.9375,77.91016,77.88281,77.859375,77.83594,77.81641,77.796875,77.78125,77.765625,77.75,77.74219,77.73047,77.72656,77.72266,77.72266,77.72266,77.72656,77.73047,77.73828,77.75,77.76172,77.77344,77.78906,77.80859,77.828125,77.84766,77.87109,77.89453,77.91797,77.94141,77.96875,78.48828,78.515625,78.54297,79.06641,79.09375,79.625,79.64844,80.17578,80.203125,80.22656,80.75391,80.77344,80.79297,80.80859,80.82031,80.83203,80.84375,80.85156,80.85547,80.859375,80.859375,80.86328,80.86328,80.86328,80.86328,80.86328,80.86328,80.86328,80.86328,80.86328,80.86328,80.86328,80.86328,80.86328,80.86328,80.86328,80.86328,80.86328,80.86328,80.86328,80.86328,80.86328,80.86328,80.86328,80.86328,80.86328,80.86328,80.86328,80.86328,80.86328,80.86328,80.86328,80.86328,80.86328,80.86328,80.86328,80.86328,80.86328,80.86328,80.86328,80.86328,80.86328,80.86328,80.86328,80.86328,80.86328,80.86328,80.86328,80.86328,80.86328,80.86328,80.86328,80.86328,80.86328,80.86328,80.86328,80.86328,80.86328,80.86328,80.86328,80.86328,80.86328,80.86328,80.86328,80.86328,80.86328,80.86328,80.86328,80.86328,80.86328,80.86328
69.71094,69.60156,69.51953,69.46484,69.4375,69.44531,69.48047,69.54297,69.640625,69.76172,69.91406,70.08984,70.296875,70.52344,70.77344,71.046875,71.33594,71.64453,71.96875,72.30469,72.65234,73.00781,73.37109,73.73828,74.10547,74.47266,74.83594,75.19531,75.546875,75.88672,76.21484,76.53125,76.828125,77.109375,77.36719,77.60547,77.81641,78.00391,78.16797,78.30078,78.40625,78.484375,78.53125,78.546875,78.53516,78.49219,78.421875,78.32031,78.19141,78.03906,77.859375,77.66016,77.44141,77.203125,76.953125,76.69141,76.421875,76.15234,75.88281,75.61719,75.35547,75.09766,74.84766,74.60547,74.37109,74.15234,73.94531,73.75391,73.578125,73.41797,73.27734,73.15625,73.05469,72.97656,72.91797,72.88281,72.86719,72.87891,72.91016,72.96875,73.046875,73.14844,73.26953,73.41797,73.58203,73.76953,73.97266,74.19922,74.4375,74.69141,74.65625,74.92578,75.20703,75.5,75.79297,76.09375,76.40234,76.70703,77.01172,77.3125,77.609375,77.48047,77.75391,78.015625,77.81641,77.58984,77.79297,77.51172,77.67969,77.83203,77.47266,77.58984,77.68359,77.765625,77.828125,77.875,77.90625,77.921875,77.92578,77.91797,77.89844,77.87891,77.84766,77.82031,77.79297,77.765625,77.73828,77.71094,77.68359,77.65625,77.62891,77.60547,77.578125,77.55469,77.53125,77.50781,77.48828,77.46484,77.44531,77.42969,77.41406,77.39844,77.38672,77.375,77.36719,77.359375,77.35547,77.35547,77.35156,77.35547,77.35547,77.359375,77.36719,77.375,77.38281,77.39844,77.41016,77.42578,77.44141,77.45703,77.47656,77.49609,77.515625,77.53516,78.05469,78.078125,78.10156,78.625,78.64844,79.16797,79.19141,79.71875,79.73828,79.76172,80.28906,80.30469,80.83203,80.84766,80.86328,80.875,80.88281,80.890625,80.89844,80.90234,80.90625,80.91016,80.91016,80.91016,80.91016,80.91016,80.91016,80.91016,80.91016,80.91016,80.91016,80.91016,80.91016,80.91016,80.91016,80.91016,80.91016,80.91016,80.91016,80.91016,80.91016,80.91016,80.91016,80.91016,80.91016,80.91016,80.91016,80.91016,80.91016,80.91016,80.91016,80.91016,80.91016,80.91016,80.91016,80.91016,80.91016,80.91016,80.91016,80.91016,80.91016,80.91016,80.91016,80.91016,80.91016,80.91016,80.91016,80.91016,80.91016,80.91016,80.91016,80.91016,80.91016,80.91016,80.91016,80.91016,80.91016,80.91016,80.91016,80.91016,80.91016,80.91016,80.91016,80.91016,80.91016,80.91016,80.91016,80.91016,80.91016,80.91016,80.91016,80.91016
70.07031,69.95703,69.86719,69.8125,69.78516,69.78516,69.81641,69.87891,69.97266,70.09375,70.24219,70.41797,70.61719,70.84375,71.09375,71.36328,71.65234,71.95703,72.28125,72.61719,72.96094,73.31641,73.67969,74.04297,74.41016,74.77734,75.140625,75.5,75.84766,76.1875,76.515625,76.828125,77.125,77.40234,77.66016,77.89453,78.10547,78.29297,78.453125,78.58203,78.6875,78.76172,78.80469,78.81641,78.80078,78.75391,78.67969,78.57422,78.44531,78.28516,78.10156,77.89844,77.671875,77.43359,77.17578,76.91016,76.63672,76.36328,76.08984,75.81641,75.546875,75.28516,75.02734,74.78125,74.54297,74.3125,74.10156,73.89844,73.71484,73.546875,73.39844,73.26953,73.15625,73.06641,73.0,72.953125,72.92969,72.92969,72.953125,73.0,73.07031,73.16016,73.27734,73.41406,73.57031,73.75,73.94922,74.16406,74.39844,74.35156,74.60547,74.5625,74.82422,75.10547,75.38672,75.67578,75.96875,76.26172,76.55859,76.84766,77.13672,77.41406,77.26172,77.51953,77.76172,77.53516,77.28125,77.46875,77.16016,77.30859,77.44531,77.0625,77.16016,77.24219,77.30469,77.35547,77.38672,77.40625,77.41406,77.41016,77.39453,77.37891,77.35547,77.33203,77.30859,77.28516,77.265625,77.24219,77.22266,77.19531,77.17578,77.15625,77.13672,77.11328,77.09375,77.07422,77.05859,77.04297,77.02344,77.01172,77.0,76.98828,76.97656,76.96875,76.96094,76.953125,76.953125,76.94922,76.94922,76.94922,76.953125,76.953125,76.96094,76.96484,76.97656,76.984375,76.99609,77.00781,77.01953,77.03516,77.05078,77.06641,77.08203,77.59766,77.61719,77.63672,78.15625,78.17578,78.69531,78.71484,79.23828,79.25781,79.27734,79.80078,79.81641,80.34375,80.35156,80.36719,80.890625,80.90234,80.91016,80.91797,80.921875,80.92578,80.92969,80.92969,80.92969,80.93359,80.93359,80.93359,80.93359,80.93359,80.93359,80.93359,80.93359,80.93359,80.93359,80.93359,80.93359,80.93359,80.93359,80.93359,80.93359,80.93359,80.93359,80.93359,80.93359,80.93359,80.93359,80.93359,80.93359,80.93359,80.93359,80.93359,80.93359,80.93359,80.93359,80.93359,80.93359,80.93359,80.93359,80.93359,80.93359,80.93359,80.93359,80.93359,80.93359,80.93359,80.93359,80.93359,80.93359,80.93359,80.93359,80.93359,80.93359,80.93359,80.93359,80.93359,80.93359,80.93359,80.93359,80.93359,80.93359,80.93359,80.93359,80.93359,80.93359,80.93359,80.93359,80.93359,80.93359,80.93359,80.93359,80.93359,80.92969,80.92969
70.28516,70.171875,70.08594,70.02734,69.99609,69.99219,70.02344,70.078125,70.16797,70.28125,70.41797,70.58984,70.77734,70.99609,71.234375,71.68359,71.97266,72.27734,72.59766,72.92969,73.27344,73.625,73.984375,74.35156,74.71484,75.078125,75.44141,75.796875,76.14453,76.48047,76.80859,77.11719,77.41406,77.6875,77.94141,78.17578,78.38281,78.56641,78.72266,78.85156,78.953125,79.02344,79.0625,79.07422,79.05469,79.00391,78.92578,78.81641,78.68359,78.51953,78.33203,78.125,77.89453,77.64844,77.390625,77.11719,76.83984,76.5625,76.28125,76.00391,75.73047,75.46484,75.203125,74.94531,74.703125,74.46875,74.24609,74.03906,73.84766,73.671875,73.515625,73.375,73.25391,73.15625,73.078125,73.02344,72.98828,72.98047,72.99219,73.03125,73.08984,73.171875,73.27734,73.40625,73.55859,73.72656,73.91797,74.125,74.06641,74.30469,74.25,74.50391,74.44922,74.71094,74.98047,75.25391,75.53516,75.8125,76.09766,76.37891,76.65234,76.921875,77.19141,77.01172,77.24609,77.47266,77.22266,76.94141,77.109375,76.77734,76.90625,77.02344,76.625,76.703125,76.765625,76.81641,76.85156,76.87109,76.88281,76.88281,76.875,76.859375,76.83984,76.82422,76.80469,76.78906,76.765625,76.75,76.73047,76.71484,76.69531,76.67969,76.66406,76.64453,76.63281,76.61328,76.60156,76.58594,76.57422,76.5625,76.55078,76.54297,76.53516,76.52734,76.51953,76.51953,76.51172,76.51172,76.51172,76.51172,76.51172,76.515625,76.51953,76.52734,76.53125,76.54297,76.55078,76.5625,76.57031,76.58203,76.59375,76.60547,77.12109,77.13672,77.14844,77.66797,77.68359,78.19922,78.21875,78.73828,78.75391,78.76953,79.29297,79.30469,79.828125,79.83594,79.85156,80.37109,80.37891,80.90234,80.90625,80.91406,80.91797,80.921875,80.92578,80.92578,80.92578,80.92578,80.92578,80.92578,80.92578,80.92578,80.92578,80.92578,80.92578,80.92578,80.92578,80.92578,80.92578,80.92578,80.92578,80.92578,80.92578,80.92578,80.92578,80.92578,80.92578,80.92578,80.92578,80.92578,80.92578,80.92578,80.92578,80.92578,80.92578,80.92578,80.92578,80.92578,80.92578,80.92578,80.92578,80.92578,80.92578,80.92578,80.92578,80.92578,80.92578,80.92578,80.92578,80.92578,80.92578,80.92578,80.92578,80.92578,80.92578,80.92578,80.92578,80.92578,80.92578,80.92578,80.92578,80.92578,80.92578,80.92578,80.92578,80.92578,80.92578,80.92578,80.92578,80.92578,80.92578,80.92578,80.92578,80.92578,80.92578,80.92578
70.48828,70.375,70.28516,70.22656,70.19141,70.18359,70.21094,70.26172,70.34375,70.44922,70.58203,70.73828,70.921875,71.12891,71.546875,71.80469,72.078125,72.36719,72.67578,72.99609,73.32422,73.93359,74.28906,74.65234,75.015625,75.375,75.734375,76.08594,76.43359,76.76953,77.08984,77.39844,77.69141,77.96094,78.21484,78.44531,78.64844,78.828125,78.984375,79.109375,79.20703,79.27344,79.30859,79.31641,79.29297,79.24219,79.15625,79.046875,78.90625,78.73828,78.55078,78.33594,78.10156,77.85156,77.58984,77.3125,77.03125,76.75,76.46484,76.18359,75.90625,75.63281,75.36719,75.10547,74.85547,74.61328,74.38672,74.171875,73.97266,73.78906,73.62109,73.47656,73.34766,73.23828,73.15234,73.08594,73.04297,73.02344,73.02734,73.05469,73.10547,73.17969,73.27734,73.39844,73.53906,73.69922,73.88281,73.80469,74.01953,73.95703,74.19141,74.13281,74.38281,74.3125,74.57031,74.828125,75.09375,75.36328,75.63281,75.90234,76.16406,76.42578,76.68359,76.92969,76.72266,76.94141,77.14844,76.87109,76.56641,76.71484,76.359375,76.47266,76.57031,76.14844,76.21484,76.265625,76.30078,76.32422,76.33984,76.33984,76.33594,76.32422,76.30859,76.296875,76.28125,76.265625,76.25,76.234375,76.22266,76.20703,76.19141,76.17969,76.16797,76.15234,76.140625,76.12891,76.11719,76.10547,76.09766,76.08984,76.078125,76.07031,76.06641,76.0625,76.05469,76.05078,76.046875,76.046875,76.046875,76.046875,76.046875,76.05078,76.05469,76.05859,76.0625,76.07031,76.078125,76.08594,76.09375,76.10156,76.11328,76.625,76.63281,76.64453,77.16016,77.171875,77.6875,77.69922,78.21875,78.23047,78.24219,78.76172,78.77344,79.29297,79.30078,79.3125,79.83203,79.83984,80.35547,80.36328,80.87891,80.88672,80.890625,80.890625,80.89453,80.89453,80.89453,80.89453,80.89453,80.89453,80.89453,80.89453,80.89453,80.89453,80.89453,80.89453,80.89453,80.89453,80.89453,80.89453,80.89453,80.89453,80.89453,80.89453,80.89453,80.89453,80.89453,80.89453,80.89453,80.89453,80.89453,80.89453,80.89453,80.89453,80.89453,80.89453,80.89453,80.89453,80.89453,80.89453,80.89453,80.89453,80.89453,80.89453,80.89453,80.89453,80.89453,80.89453,80.89453,80.89453,80.89453,80.89453,80.89453,80.89453,80.89453,80.89453,80.89453,80.89453,80.89453,80.89453,80.89453,80.89453,80.89453,80.89453,80.89453,80.89453,80.89453,80.89453,80.89453,80.89453,80.89453,80.89453,80.89453,80.89453,80.89453,80.89453
